ply
format ascii 1.0
element vertex 698
property double x
property double y
property double z
property uchar red
property uchar green
property uchar blue
end_header
-0.1188883739332160 0.0438678998557013 1.2788582562494928 58 46 50
0.0089733487929073 -0.0188727050606690 1.2888468984211623 50 46 43
0.1208628463134767 0.0429979514993132 1.2971127370592037 158 140 116
-0.4004940806640960 0.0470400472870081 1.2671646427998349 127 123 111
0.0252231905584977 0.0454653140676618 1.2888211057247227 114 108 96
0.0930229023477834 0.0457073474697227 1.2946497080831227 51 37 54
0.2522218888744777 0.0477079825176693 1.3075199757782596 67 52 57
0.1554902512999827 -0.0150731574635599 1.3017567938945536 205 93 9
0.0703678084071399 0.0471556120358608 1.2928118920255265 188 165 133
0.0703678084071399 0.0471556120358608 1.2928118920255265 188 165 133
0.0555874754502874 -0.0122932855829689 1.2923907207575620 56 46 45
0.1664391670869966 0.0472528102365259 1.3008485408756010 154 138 112
0.1008287725156498 0.0499050715229180 1.2955445555952523 49 43 45
0.1009962762422265 0.0496912556287188 1.2953174622445407 49 43 45
-0.3233997549207512 -0.0089284074001290 1.2690231031105677 136 150 153
0.2577389491616492 0.0530728235664435 1.3081973480897129 206 192 165
0.0595207768132679 0.0529204441672310 1.2918726791042243 196 175 144
0.0595207768132679 0.0529204441672310 1.2918726791042243 196 175 144
-0.3033177955154032 -0.0094028581229515 1.2690131648547902 131 142 146
0.0769451849497508 0.0552715478711110 1.2929749655697893 208 191 161
-0.1256069453294990 0.0569112781641544 1.2788129617769151 108 111 100
0.0096293598711025 0.0554949965573545 1.2881943387676651 151 136 115
0.0959789059626124 0.0585191494989100 1.2950276824008229 70 53 71
0.4117284406272641 -0.0095408510206527 1.3244523475315710 59 57 44
0.0960081864355846 0.0585094963055963 1.2949685365106800 70 53 71
0.1022659860929862 0.0589769912117192 1.2954434996408222 200 180 156
0.1021093079702392 0.0590421428829999 1.2949626772167855 200 180 156
-0.3541492502630622 0.0598112696522146 1.2684824855642218 138 122 107
-0.0237053118496001 0.0585930957843643 1.2855660140744432 129 125 113
0.0589105910826750 -0.0041430120904832 1.2920286171045596 181 173 154
-0.3731349004696082 0.0661456648279690 1.2680604788304983 137 129 116
0.0482227988659601 0.0666865489983733 1.2911274677340292 111 109 96
-0.3000332089264067 -0.0009076076000619 1.2696713394821331 55 46 49
-0.0443441239085500 0.0670899732739604 1.2840987675402191 45 43 46
-0.2998265954433058 -0.0008563158860476 1.2693986889276956 55 46 49
-0.0149137116460038 0.0684272790554532 1.2865806283096981 44 40 55
-0.3030182900937827 0.0698166177784534 1.2701385086651027 50 45 52
-0.1803355134341897 0.0726707382104333 1.2764355950051292 55 44 52
0.2002392356959988 0.0122625357466345 1.3046399931150321 62 52 50
0.1546845184564131 0.0164196975646748 1.3007016980036379 64 47 37
-0.1167181590993169 0.0757629323984750 1.2794642899165742 63 51 51
-0.1410300291857516 0.0782307713252417 1.2786187328499317 52 43 48
0.1002184452050289 0.0799868919148647 1.2949264660477391 170 157 138
-0.0340201171791659 0.0805628536399905 1.2844951167185370 152 143 128
-0.1460354660067248 0.0836628376178592 1.2775216002588017 46 37 38
-0.2870244463894121 0.0188375354524116 1.2715593106306138 153 128 61
-0.1192523852611300 0.0849402766465985 1.2793414616649470 143 135 124
-0.1407940639036505 0.0890895219402295 1.2781600088257667 54 44 45
-0.1348466660062976 0.0899867004568583 1.2791704480495323 108 102 88
0.1978883621678073 0.0215154230557446 1.3037709425170840 139 128 108
-0.1348466660062976 0.0899867004568583 1.2791704480495323 108 102 88
-0.1040535264475280 0.0256365121287670 1.2802923555643653 56 47 48
-0.1040028511119120 0.0255872751000234 1.2802135880628744 56 47 48
-0.0799805494843179 0.0272573957713295 1.2818668451694357 48 42 52
-0.0800741722897113 0.0268408184391127 1.2818221647198549 48 42 52
0.0840999286930639 0.0434765805378591 1.2937723576617044 163 146 128
-0.2130881096523229 0.1888528335289951 1.2770542745223963 114 135 140
0.1108650485236265 -0.0554135225686279 1.2978878431732075 194 176 152
0.0691267190872873 0.2150283465619958 1.2906054331557157 53 43 42
-0.2136004108477825 0.1888923263286577 1.2764348705800992 114 135 140
0.1108650485236265 -0.0554135225686279 1.2978878431732075 194 176 152
-0.1389984850168792 0.0462554876832710 1.2783273424888528 188 171 153
0.2258238873977133 -0.3157175897636192 1.3047469105355833 226 209 191
-0.1913871369429593 -0.2988342713246293 1.2792539620600398 183 54 49
-0.1752532792661102 0.2158825058260129 1.2794879011812277 45 37 34
0.1785036120078514 -0.0542920331101958 1.3038384637433817 63 55 53
-0.0128478606511007 0.1903204123697537 1.2863150678611903 58 48 46
0.3421603009760512 -0.3173983743623052 1.3107243189396820 226 208 196
-0.1389731569274611 0.0463701078333060 1.2782684550817847 188 171 153
0.3042749611862966 -0.0407982412549776 1.3151863949578584 188 169 152
0.1634187346090391 0.2208908062111050 1.2965632241662324 114 96 82
0.0685864116277737 -0.0321639655929033 1.2941796252886715 64 58 46
-0.2229715269452315 0.1998951981248528 1.2760715188168259 49 41 39
0.0768154945045928 -0.2844902347120477 1.2950721879809464 198 169 153
0.2243008579813874 0.2262992243202044 1.3015719870863582 51 44 38
0.3165417116321044 -0.2879887573091029 1.3106945675658663 175 159 133
0.3386354323518974 0.0474489922527744 1.3163419742147855 183 164 122
-0.2229350796885657 0.1998556866977756 1.2760484708521378 49 41 39
0.0687882741461511 -0.0320541062900792 1.2940893302847045 64 58 46
-0.1855572941077656 0.2021604700288759 1.2795929290592916 45 37 34
-0.1044094974968696 0.2384249650843109 1.2833765799481800 175 84 31
0.3232529094832329 -0.0194855653082633 1.3153266807101145 53 46 38
0.1079874277436621 0.2067138796721420 1.2925952211292109 206 185 164
0.1492486723792675 -0.2736841578582805 1.2993665859662897 171 154 138
0.2336799252992400 0.0561449537562998 1.3079664455673614 212 194 172
0.4056585281703996 -0.0211734324162727 1.3238964553500678 176 145 124
0.3457837416195201 0.2139238001017782 1.3139552643423886 215 200 181
0.3609299817022822 -0.2862077713869047 1.3135651218544522 147 144 111
0.2205226186867915 0.2508769828037060 1.3010628543823246 56 46 45
0.2714419218003047 0.2169569168272945 1.3054386149945145 114 112 97
-0.2434263440463652 0.0021959916350362 1.2730249757697425 184 111 32
0.2096223795235204 -0.2653608520103974 1.3036747319275548 59 46 40
-0.3808487481823100 0.0556660688442463 1.2679512012760803 142 129 113
-0.2026824380977903 0.2223679108304936 1.2779480613253953 44 40 37
0.4270256459500428 -0.2842493941049296 1.3166695514760605 68 54 51
-0.2434263440463652 0.0021959916350362 1.2730249757697425 184 111 32
0.3683267646056922 0.2679042668806278 1.3184053795607928 171 146 115
0.0573242326687224 0.2245653988829348 1.2900571879145928 200 181 164
0.4269691502637697 -0.2842541702547029 1.3167120167846791 68 54 51
-0.1586198296348566 0.2316605474792733 1.2808884159598868 48 40 37
0.4381644954636004 -0.2615005920347401 1.3192854831281371 55 46 41
0.1476460004914537 -0.2562431183666757 1.2998711034598149 67 53 50
-0.1507064813381756 0.2579253876786264 1.2819454691741525 111 109 110
0.4214609047276537 0.0049895446507917 1.3249946375351929 188 163 143
0.2243398828920870 -0.2701938490600969 1.3039483758718697 151 143 132
0.1688472977942179 0.0561651174655625 1.3015362470882879 212 191 170
-0.1586198296348566 0.2316605474792733 1.2808884159598868 48 40 37
0.1476460004914537 -0.2562431183666757 1.2998711034598149 67 53 50
-0.2481631378668418 -0.2544747996488683 1.2751467763931024 116 67 63
0.3304377851953931 0.2666259099044775 1.3126052872926270 117 51 39
0.0646698861593151 0.2336848795251636 1.2904819482954355 86 74 76
-0.2055610963268530 -0.2394897694397646 1.2774586425242096 188 155 124
0.4058675919863156 -0.2699035787016221 1.3169406120242331 52 45 39
0.1036708164500600 -0.2537354285543724 1.2968319364846248 76 53 47
0.1223309824341662 0.2414038129172499 1.2932864534052881 191 176 155
-0.1364796257613838 0.0285829308263717 1.2787543732050621 47 43 42
0.1226149419586925 0.2416012068230098 1.2936446541732873 191 176 155
0.1038393247410983 -0.2539825394172329 1.2973311064329001 76 53 47
-0.2367085685705533 -0.2525678442132457 1.2754563662198330 180 156 128
-0.0911180267123189 0.0351018389693210 1.2806142125394275 206 187 170
0.4430866882162760 0.2756150796016884 1.3310785665458322 91 67 57
0.4515027558287756 -0.2476770449172774 1.3188210588567288 215 199 176
0.2463493840151126 0.2475028977910613 1.3028092330681837 107 108 94
-0.2205201954496132 -0.2451238326368476 1.2767362058639802 147 78 45
-0.1460734929392551 0.2443766543494163 1.2820607863174438 46 46 36
-0.0907666172189287 0.0352147419675881 1.2817019981892779 206 187 170
-0.2155518094023937 0.2639143685227500 1.2774084096593239 159 132 121
-0.1460734929392551 0.2443766543494163 1.2820607863174438 46 46 36
0.2076077009291327 -0.2485236226408227 1.3037450224096261 193 136 125
0.3710428791006812 -0.2285490773114457 1.3158326508626124 59 48 46
0.1911044568393979 0.2492209440359937 1.2976947440079347 77 64 56
0.2074295359237253 -0.2486279581189700 1.3039787834859395 193 136 125
-0.0287377398339819 0.2487461903940889 1.2851576186312992 195 176 161
-0.2995378766504094 0.0424337703223309 1.2699739186157386 124 141 148
-0.1966217870395341 0.2670186533541202 1.2791605646138344 42 38 29
0.1488282242576918 -0.2180231641509117 1.3025500848394898 70 56 55
0.3881445352690781 -0.2460978340367282 1.3159601102695555 112 114 93
-0.3317078331717488 0.2544150360520543 1.2718489299578488 41 40 35
-0.2997683499339233 0.0425794030719773 1.2694254411634778 124 141 148
0.1488282242576918 -0.2180231641509117 1.3025500848394898 70 56 55
-0.3706814913993310 0.2788779006717955 1.2732456398379255 27 23 22
-0.5586060352852980 0.2650294590739271 1.2782743463921682 153 134 91
0.1121730444372196 0.0500955896705811 1.2962758532686622 61 52 45
0.4413989604803248 -0.2231823019890798 1.3203502250500196 138 69 53
0.2560590754972882 0.2881747022537022 1.3030093042710189 64 52 56
0.4254543506142319 -0.2296363721567405 1.3186175779454259 167 139 117
0.1835395455913799 0.2645031159763138 1.2968043159179525 162 141 112
0.3380591515883479 -0.1821114440177047 1.3143298531249725 54 45 40
-0.2084291406643556 -0.2073860571651331 1.2774730776986880 192 93 62
0.0851937551582388 0.0738498461779269 1.2936115604961100 204 187 169
0.1835395455913799 0.2645031159763138 1.2968043159179525 162 141 112
0.0676782274551611 0.0543232002790331 1.2923606652348469 208 187 168
0.1891543281599682 -0.1607965580860646 1.3030846147309827 140 57 39
-0.1418031927653501 0.2861280953971925 1.2839319786568408 35 30 27
0.2189562311337223 0.2643096190593847 1.2993630065946762 106 103 86
-0.0384038225278454 0.0570197776095871 1.2847234078657837 49 39 40
-0.1431223548314282 0.2854434044617088 1.2834789988223492 36 31 27
-0.0639987588656697 -0.1832292857089998 1.2859969452386297 159 143 127
-0.1532837874267659 0.2955496666752073 1.2830879053996789 107 100 94
0.1026918119321980 0.0886866787701853 1.2953367941551481 90 76 73
-0.0067236509487151 0.0600605558209533 1.2871809931240450 157 141 125
-0.1658323090577080 0.2896822220832170 1.2823218382067334 39 45 59
-0.1212250716441292 -0.1428058463023026 1.2814324758470743 172 160 144
-0.0320663200185863 -0.1773305407202648 1.2877623387421613 48 43 40
0.1531229985447966 0.3097258027461452 1.2949721655955058 161 112 105
-0.1020359044039632 0.2918128710930298 1.2855494559874785 40 32 30
-0.3927879303480165 0.0708692549282807 1.2666028742063458 39 36 31
0.4379557805376596 -0.1797269600646516 1.3234491991523778 62 50 52
-0.1328000770608868 0.3004649138150541 1.2841836255265831 36 31 28
0.0700995083806778 0.0932862977503609 1.2918726960783469 59 47 47
-0.3012292787465238 0.3155971655151364 1.2769571444260626 38 33 27
-0.4148427466275271 0.3019489633457951 1.2698121955973989 121 109 97
-0.3927879303480165 0.0708692549282807 1.2666028742063458 39 36 31
-0.0911518216292979 -0.1549240937339827 1.2838462776902972 180 170 161
0.2980863946277778 -0.1710726046521371 1.3106657582100349 64 49 44
-0.5614495310317625 0.1325933354983910 1.2710638998057533 166 154 116
-0.0911518216292979 -0.1549240937339827 1.2838462776902972 180 170 161
-0.0499622560175236 0.0698894680960626 1.2836586975910729 46 41 38
-0.3001009448258404 -0.1429633829857079 1.2705966077215671 62 52 50
-0.0106205125324006 -0.1636694470861016 1.2882491434675247 55 46 47
-0.3299641603226161 0.3191428935429190 1.2766734274074536 31 27 24
-0.0233860367862428 0.0738213123972811 1.2852484952947723 195 180 157
-0.3553171300902084 0.3284583232006171 1.2755654499485634 38 33 30
-0.1839110634087728 -0.1294704718612602 1.2815228461074837 49 42 36
-0.0926948882104569 0.1288523757400719 1.2807663143250645 59 45 42
-0.1535215436098719 -0.1271187840657722 1.2795393319457475 63 51 53
-0.1319976558929220 0.3186563402952850 1.2849635496261269 159 150 133
-0.0233860367862428 0.0738213123972811 1.2852484952947723 195 180 157
0.1645191014859213 -0.1295327537640409 1.3019160585009404 183 136 126
-0.0107649243881661 -0.1637064162065453 1.2882235000182667 55 46 47
-0.1319976558929220 0.3186563402952850 1.2849635496261269 159 150 133
-0.1065041308891790 -0.1220828509466080 1.2820673120070152 150 140 130
0.3046840772616390 0.0820975717753159 1.3117863080367158 67 55 57
-0.3605464704816577 0.1355685445748308 1.2715361984337987 141 136 19
-0.1927640869798079 -0.1119300906211812 1.2763770251071553 51 46 42
-0.1880917119220494 -0.1176903114572630 1.2765299885794001 57 49 46
-0.3145696643959514 0.3277459639482702 1.2761144816796568 96 119 127
-0.1214515809930808 -0.1203098820998677 1.2813587471780388 51 43 40
-0.5594193746889081 0.0865386160612533 1.2718225370843701 135 115 78
-0.1373223277169338 -0.1170695915961369 1.2803819433029091 173 162 144
0.3845559745562878 -0.1199688822726515 1.3209445423100625 183 162 145
-0.1269843503074182 0.3351963168554192 1.2850898730234119 51 43 41
0.2531106620603096 0.0851874825383902 1.3073446293717543 58 44 43
0.1690480916232403 -0.1064314599096303 1.3018544337699085 202 183 168
0.4413947665612777 0.3515346503594315 1.3332427439041863 41 38 31
-0.1269843503074182 0.3351963168554192 1.2850898730234119 51 43 41
-0.1214126308128432 -0.1203802700052082 1.2813100085359843 51 43 40
0.1757727610124310 0.1467444904104326 1.2995991910656803 131 119 107
-0.1375484281658520 -0.1019963400886143 1.2799262853213527 61 49 51
-0.1680937636930420 0.0863145291933451 1.2773746628280205 188 169 165
-0.1225313064379393 0.3460347746582922 1.2845815644510417 179 163 147
0.4413947665612777 0.3515346503594315 1.3332427439041863 41 38 31
0.0001760032504876 -0.0931818877121675 1.2888191182844342 167 150 140
-0.1227314356109109 0.3459476480338479 1.2841706797750509 179 163 147
0.2010499327605813 0.1000591704193121 1.3026478916356141 176 158 136
0.1536667082694701 -0.0940596121965260 1.3009876777851077 161 143 131
0.2295425809454182 0.3578011025923385 1.2987228081578472 125 57 44
0.1885824673361993 0.3414659635543274 1.2965527932791794 171 135 111
-0.1682716516657394 0.0998626853163227 1.2769457212479169 58 44 41
0.0162956346553661 -0.0802762293672884 1.2899258592413583 157 145 121
-0.0176224616880585 -0.1064896871595019 1.2872140004095536 182 163 149
-0.3714032675343036 0.3631955815218362 1.2742174289962021 54 44 71
-0.3944757638093748 -0.0774387854712236 1.2650419957463970 176 163 128
-0.3686140122518919 0.3385745889742016 1.2748476634519605 97 94 39
-0.0415136004608738 0.3606568917951870 1.2862480194492285 60 43 33
-0.0970058965697976 0.1010297311425680 1.2819054065442412 181 166 145
0.3783597527454540 0.3848645923825758 1.3289217115051000 130 96 58
-0.1639566289888183 -0.0918023278646185 1.2780016445027109 53 41 41
0.3732056717539965 0.3550776484024125 1.3191536163551851 58 49 42
-0.1938671130956776 -0.1101620610676197 1.2759374742223408 50 45 41
-0.0138041349006169 0.1707902907544944 1.2864099223388461 121 117 106
-0.0756906773825033 0.1352971855603894 1.2815644905293777 145 127 115
0.3732056717539965 0.3550776484024125 1.3191536163551851 58 49 42
-0.0522507574782723 -0.0776383529696379 1.2847731859560849 53 44 47
-0.1530622017111963 0.1390981243515135 1.2780083786840022 50 42 39
-0.0411712390655679 -0.0607476399623618 1.2858240379457022 174 169 150
-0.2827273481826016 0.3456853861075911 1.2775536249923685 104 128 132
-0.0338010782376846 -0.0937188599248195 1.2859604198111518 47 46 44
-0.0412279161974245 -0.0608023632244488 1.2856508421905601 174 169 150
-0.3842850551139707 0.1506446565282128 1.2696708998092112 36 33 28
-0.2825911113863586 0.3455417884397781 1.2768050493480574 104 128 132
-0.0123018786290852 -0.0902775854469941 1.2876464129450376 82 68 65
0.1593657134975085 0.1539876314583250 1.2973154663272730 61 52 55
0.1922267408984313 -0.0523140232875471 1.3056231878274105 189 172 144
0.3160367459816907 -0.0896793313499126 1.3149493974102378 58 48 46
-0.2744579392585797 -0.0929012012842381 1.2716601099215743 159 133 48
0.3082228064703247 0.3559513192008235 1.3090374652688224 104 56 52
0.2507998365475744 0.1592865215946874 1.3060860631687123 153 144 137
-0.2405262285386965 -0.0806544871760305 1.2737891736618605 189 151 132
0.0618802417720881 -0.0469520097256544 1.2940927680118781 168 133 103
-0.1961350322488283 0.1938334372763222 1.2778089203974878 46 39 33
0.3950411894535965 -0.0910747345638858 1.3223310885086867 135 58 38
0.0744025818851792 -0.0470402596873025 1.2950864183146193 150 134 118
-0.0262921635108333 -0.0792029023676230 1.2869938876855378 156 150 134
-0.4046727465442741 0.1655668308237013 1.2701708738991422 102 128 143
-0.0217901101538416 0.3479913484865464 1.2880228109208338 120 36 25
-0.1780676118533750 -0.0370322159729617 1.2763353259695778 122 125 114
-0.0262921635108333 -0.0792029023676230 1.2869938876855378 156 150 134
-0.1780676118533750 -0.0370322159729617 1.2763353259695778 122 125 114
-0.4051114181345188 0.1654783460255291 1.2696940688737479 102 128 143
-0.2646088053123493 0.3558577303849969 1.2783793257526108 38 33 29
-0.1579031349744273 0.2072233661295771 1.2797817545217107 178 105 86
-0.0423576744594251 -0.0329684303828206 1.2854969896395592 64 54 55
0.4523575259426583 -0.0822585166498036 1.3272293268501303 219 203 178
-0.2904260879154917 0.3608517628656908 1.2780222202618545 50 45 42
0.3854349585169779 0.1696675085728760 1.3222106725995517 155 144 114
-0.3302829987000214 -0.0256427651362232 1.2678267604963265 51 48 43
-0.1673740191347269 -0.0763674373995082 1.2779678358808739 207 190 172
-0.4018568639568154 0.2107348598920168 1.2696437896444672 35 31 28
-0.0245168587431925 -0.0225068054943833 1.2864253817553679 80 69 67
-0.1216106512746419 0.3594758264168390 1.2836212695687188 79 57 46
-0.0443758912325146 -0.0779568065994539 1.2850584210560119 76 68 66
-0.1672365723373212 -0.0763050597836634 1.2776292977718455 207 190 172
0.0852622974108972 -0.0204240727051392 1.2951651529858641 79 58 53
-0.0685553418350648 0.3594296996678774 1.2858148507092264 38 33 29
0.2220431830138172 0.1815140949115219 1.3034199597889331 108 102 88
0.1546725995409531 -0.0139206318537859 1.3011172612761954 205 91 5
0.3805477540366322 0.1964018310886256 1.3180012837565740 61 48 42
-0.1053518759442472 -0.0760044855980497 1.2817288153663795 50 44 44
0.4282540425538150 0.2276786934568950 1.3282926258753436 76 63 57
0.3039267724869062 -0.0798703656240730 1.3147238299488484 169 155 126
-0.2118704668944464 -0.0700585064972628 1.2747702179255276 189 133 120
0.0009172172206106 -0.0115948547612908 1.2880375812362392 54 45 46
0.0687372115591604 -0.0117275141741624 1.2933727362982188 66 56 57
-0.4246718883470422 -0.0579660611953408 1.2639949289808257 118 114 41
0.4286285361540651 0.2270667475708534 1.3281517032389447 76 63 57
-0.1160092030626501 0.1951069376149760 1.2816361975064250 42 34 31
-0.0635307193895457 -0.0621506308454551 1.2841394971004996 69 58 54
-0.1160092030626501 0.1951069376149760 1.2816361975064250 42 34 31
-0.0635469649212254 -0.0622047034483488 1.2843259674218594 69 58 54
0.0446818479877158 -0.0050150141003475 1.2904794891916322 60 50 51
0.4517033337835759 0.2335886518375827 1.3316586516495039 219 202 186
0.1622260895635541 -0.0620989362773548 1.3029426018340817 190 173 155
-0.3282742552366338 0.0002036328235208 1.2684671094103153 51 46 42
0.0173009225042902 -0.0606605446422899 1.2905471226316350 161 150 132
-0.3777871099684706 0.2455734717876741 1.2697407822103586 41 41 39
-0.1976980214938091 -0.0538269477928222 1.2757933937587933 58 47 41
-0.1174102462059864 0.0387233429725577 1.2792767126369475 61 56 53
0.3172831882519928 -0.0578160550420824 1.3164773731016821 55 45 43
0.1520074598061104 0.2121385046117252 1.2958296175307371 189 171 149
0.2189393908661822 0.0406471997792290 1.3052351512912892 58 52 52
0.2129564842665073 0.2516423145007557 1.2966911560794008 90 80 68
0.1520074598061104 0.2121385046117252 1.2958296175307371 189 171 149
0.0345024822957083 -0.0549013584281586 1.2909477018217672 58 49 44
0.1691973142526603 0.2584223755203529 1.2961586265237757 71 70 66
-0.2884855297305296 0.0539165394658083 1.2710439883002138 50 42 40
-0.2443539170267376 -0.0435791762152486 1.2733923061521621 156 138 28
-0.0585249666938135 0.0575806409500216 1.2830032467274801 52 39 46
0.1683679734396377 0.2577965282924276 1.2954540202010638 71 70 66
-0.2443539170267376 -0.0435791762152486 1.2733923061521621 156 138 28
0.0280632485470004 0.0712579272422619 1.2896407343050131 153 140 123
-0.1427549355512658 0.0838002940037783 1.2778638598610590 58 48 46
-0.1932464641312316 -0.0336782754866147 1.2758638797488617 201 182 168
0.4417641086832235 0.2789722841704089 1.3310317768691866 92 59 54
-0.1562248042102558 0.0930173667708131 1.2772343145080851 44 39 35
0.4419121193501534 0.2789907871688636 1.3309013203306286 92 59 54
0.0822132497413532 0.0926376834512829 1.2925696123631742 61 44 50
0.1978285294053388 -0.0010508152838406 1.3050992385658458 153 138 119
-0.1351768167319556 0.1084829883140340 1.2785633421453022 45 38 32
-0.3685479991783766 0.2791625020392065 1.2724263582153565 28 24 23
0.2503421753656068 0.1098722597354856 1.3063583402559731 127 125 113
-0.0609476948328439 0.1360509233627539 1.2824792733479708 55 51 48
-0.2122122422771096 0.2833599469427086 1.2792466592743947 47 39 36
0.1422184627608731 0.1409896221456663 1.2974555139008797 137 127 115
-0.0511866408234660 0.1427241991352739 1.2834523840082677 185 169 154
-0.1139243345515624 0.2824035821170592 1.2844867253333045 38 32 32
-0.0255806921081781 0.1624519407205685 1.2853625317522868 138 129 120
0.2615599478808613 0.1782919538146900 1.3060981849453235 167 160 141
0.0491817914717151 0.0187019713599369 1.2911368050822525 177 158 141
0.2590430857342234 0.3028374215214054 1.3028094613522170 177 132 111
-0.2046662731678120 0.1802276560818268 1.2772983862452107 42 33 28
-0.3004362327231349 0.1872837447685815 1.2724081725649956 175 162 145
0.0489121884826496 0.0192289296261030 1.2912765781585314 177 158 141
-0.3214492924674289 0.0249986863709146 1.2697515434016253 43 40 33
0.3764615343743175 0.3533085212799744 1.3178714979799753 63 52 48
-0.2994326778193795 0.0228251643478996 1.2689587215857325 45 40 34
0.3764615343743175 0.3533085212799743 1.3178714979799748 63 52 48
0.0160804585756021 0.3453163528323143 1.2895525185861725 132 38 30
0.2347679987443486 0.0233003164017632 1.3071887748168973 162 147 126
0.0426079644727396 0.3467519616248951 1.2912115145704084 130 41 35
0.1370436863072242 0.0282267726468975 1.2998205765272868 209 101 3
0.0881000297776373 0.0347661357345517 1.2939620119216828 173 156 140
0.0881000297776373 0.0347661357345517 1.2939620119216828 173 156 140
0.4072971059303793 0.0373334819501643 1.3226882759956393 183 164 147
-0.1672174015803337 0.3582257110466414 1.2814647968911530 57 48 53
0.2490499654741559 0.0391554894225923 1.3081853636513994 63 51 51
0.2494877207914983 0.0386888767223727 1.3083947385971715 63 51 51
0.2495601983375464 0.0388326627646609 1.3083209438187096 63 51 51
0.1988261523911630 0.0403246428148153 1.3034495709981806 83 68 63
0.2410209303853661 0.1813142938348016 1.3042981518827343 52 42 43
0.3220672725031822 0.0201623525644401 1.3139143158208726 183 164 132
-0.1302223468906079 0.1912839682902535 1.2799411937684646 38 29 30
-0.4166836451246999 0.1807675600003613 1.2684338327005793 42 40 28
0.0627736236435348 0.0354792543283058 1.2921702957306858 67 53 50
-0.0088095458909324 -0.0259105735672337 1.2875870225260557 54 48 48
0.3251768148506851 0.3651999624157627 1.3099043139357323 212 197 174
0.0366784684677612 0.2155232390309075 1.2879460213678255 196 177 163
0.4350965271124357 0.0377089078061452 1.3236848834693011 171 44 38
0.3628058619721015 -0.2041222959080392 1.3150935201102514 173 128 69
-0.4340910645502253 0.3746714432630149 1.2726556974339522 205 190 171
0.2625307631329343 0.2028581702425752 1.3056022359004660 58 53 47
0.1485176520929697 0.0472316020324059 1.2990775365866050 59 49 40
0.3116576094410215 -0.3178996646297032 1.3103713729316078 225 208 190
-0.3612072593364529 0.0510530552641622 1.2685776852018473 42 39 32
0.0927856211207690 0.2220935942737066 1.2919066117591576 203 183 158
-0.0084088551201752 -0.0266845339938535 1.2883592663690495 54 48 48
0.3629232380201784 -0.2038089407402276 1.3153950007908231 173 128 69
0.4273851173953873 0.2276569880414472 1.3289443589191745 86 66 67
-0.1923045864712849 -0.2581177500304101 1.2784900002900299 140 54 37
0.0702818680878663 -0.2641225552090151 1.2993036974845469 204 51 45
-0.3615220690045841 0.0815465081968011 1.2695428546396115 177 164 148
0.0928479807758327 0.2211699918585662 1.2909764562829609 203 183 158
-0.1521889988318837 -0.1557983994718254 1.2812096500080521 157 141 125
0.1490622259254572 0.2327497756440416 1.2949815893571694 194 178 155
-0.2003903564343519 -0.0117143977463267 1.2754517311321922 208 191 173
0.0506677131221671 0.0854941976199358 1.2914081014741752 208 191 171
-0.3108374227456939 -0.2505974185271227 1.2689136487293984 71 53 49
-0.3097674457813127 0.2613896448814271 1.2739585856900029 170 155 136
-0.2865613378646655 0.2419566807672860 1.2737876480810655 40 32 30
0.2347487212517278 -0.1391066680943645 1.3067707876225703 165 146 132
0.3656067359505799 0.0877279842543940 1.3182879190540269 183 162 117
0.1395870911933333 0.0036552210581411 1.2995470259318724 212 97 6
-0.3097674457813127 0.2613896448814271 1.2739585856900029 170 155 136
0.3383512771277599 -0.1817484002693607 1.3141326377603979 54 51 44
-0.1177063796762579 0.1242321463175139 1.2799014247676610 189 174 155
0.4398512179711819 0.2840307067966177 1.3311443056559116 116 67 50
-0.3252998331644594 -0.1316312792692338 1.2681467386789118 189 177 163
0.1427363569958615 0.3459628328366031 1.2950706374362204 97 82 75
-0.1080115541636142 -0.1643123885946454 1.2818432514712252 112 102 92
-0.3927461197557601 0.1299824113710364 1.2702624184339886 107 134 143
0.4399824683306056 0.2850628576531669 1.3329884072929898 116 67 50
0.0342638215181717 -0.2920708951297368 1.2926186464575584 52 47 43
-0.3255925083585356 -0.1309200253806116 1.2682006724956782 189 177 163
-0.0342006321726307 -0.1575966745671054 1.2879121158921387 158 146 134
-0.4155172001759890 0.2855241307003593 1.2708038778330362 29 25 24
0.1354159124632847 0.1448729974669025 1.2983909425320734 143 129 116
0.0910103057477194 0.3478756914715286 1.2970866142472564 97 53 52
0.3184923035802594 -0.1685400428222542 1.3140514034396222 170 149 128
-0.4136485166099724 0.1485222184369561 1.2688575722244047 34 30 27
-0.1875156332961781 -0.1407824210865304 1.2775102742366997 60 52 49
0.2872079661276326 -0.2933769407630187 1.3088969933182204 70 60 51
-0.3537748750384718 -0.1290003387952431 1.2682544367883779 88 51 45
-0.0173222803701104 -0.0619536236231854 1.2872159406501387 187 170 152
-0.1838010298366747 0.2839953947344098 1.2812672620506091 132 118 109
0.2081756087017724 -0.3160687191271431 1.3085753187613507 226 211 192
-0.1140530505705327 0.3426413623732464 1.2852313990416169 173 154 139
-0.4211100633875147 -0.1166400697653851 1.2635495749789338 87 48 43
-0.1084926605078547 0.1769619645739487 1.2810168630580783 142 129 121
0.2073740821543134 0.3510857629272947 1.2968679709901576 111 59 46
0.1806904535172031 -0.2456549259515844 1.3023146943084782 54 51 46
-0.0336926046136080 0.1757288932266507 1.2847461297426881 41 35 35
-0.3275791841357532 0.0537737926689627 1.2689048182779523 198 182 167
-0.2225475040927517 0.0110962514341542 1.2747171674354689 187 49 38
-0.0336926046136080 0.1757288932266507 1.2847461297426881 41 35 35
-0.4379174235091416 -0.2246706396300227 1.2610971930167045 202 190 178
0.0718257697436327 -0.1191093440242919 1.2945659293795524 201 39 36
-0.0468408253503554 0.0313195107471033 1.2840886038389472 191 173 153
0.3208785134383002 -0.2129021271914892 1.3126668025464026 55 46 47
-0.0923431184256054 0.0597846093676313 1.2815689087342967 204 187 171
-0.0649610329499463 -0.1116957484114480 1.2844039833304828 88 71 64
0.3208785134383002 -0.2129021271914892 1.3126668025464026 55 46 47
-0.1757110294746499 -0.1071321443240471 1.2782392641132128 163 149 138
0.0728138450075513 0.0675845594544154 1.2932566919275994 166 145 126
-0.1182915864214821 -0.0898922967933378 1.2806518209980520 46 42 39
-0.0476376021674166 0.0626030920692969 1.2839632895084130 122 113 98
0.3849298035338858 -0.2880745169874405 1.3148361037478826 58 49 42
0.0725489262429516 0.0677463775743888 1.2932352255658524 166 145 126
-0.1277414887796256 0.0726964056509737 1.2784261672261006 43 38 34
-0.1278045269591711 0.0724925392591979 1.2789013090758365 43 38 34
0.2773790267119813 0.0692504022638696 1.3095113616881957 207 188 174
-0.0249312121814984 -0.0302917934436333 1.2863611012544767 125 117 104
-0.1529535030293492 0.1565921546072993 1.2788068806401167 43 35 32
0.2608085440304358 -0.1641250541370425 1.3085170205309840 61 54 46
-0.2593986737397964 -0.0249729666387121 1.2730310192280723 181 36 31
0.2773845006732678 0.0698888866472760 1.3096947191122590 207 188 174
0.1761749820903581 -0.0188556494807160 1.3026773750657472 56 49 41
0.0260017234478814 -0.0130595866926658 1.2898051575620906 196 177 160
-0.2100255352970644 -0.0958076664399836 1.2768304094678251 50 43 35
-0.3822848474857876 -0.0073252590134930 1.2668845857280997 93 86 70
-0.3822848474857876 -0.0073252590134930 1.2668845857280997 93 86 70
-0.2107422898669804 -0.0963680430641087 1.2756180773856203 50 43 35
-0.3822848474857876 -0.0073252590134930 1.2668845857280997 93 86 70
0.0830050744058114 0.0023106059641517 1.2942796146453581 167 151 135
-0.3889909484305537 0.0937127985933492 1.2693986730731106 33 30 25
-0.1321334103385202 0.0086238541540158 1.2789817039137139 196 179 163
-0.1592449705806224 0.0081757810710609 1.2772158840243817 67 52 49
0.0153953540405000 0.0942347748816804 1.2886225952978543 200 182 172
-0.1592592125224142 0.0080523574427547 1.2770720675184450 67 52 49
0.1538935662520892 0.1216887175491942 1.2993404522364587 50 40 39
-0.0356532754489365 0.1340783614836275 1.2903161779480476 187 170 152
-0.0687635418124320 0.3454342242443780 1.2897183787557958 51 39 27
0.3435762958782945 0.3567884908373189 1.3139368356717311 210 194 171
0.3104569924420836 0.2544781039806035 1.3090150450274283 137 50 43
-0.1749003919776416 -0.2818889312993050 1.2832146073412329 141 53 43
-0.0231093984540944 -0.1976868489959257 1.2879314025775521 55 45 44
-0.2306971662036524 -0.2983318422980323 1.2769653521458375 190 161 131
0.3102465174802052 0.2542301567480839 1.3105237449554170 137 50 43
0.2106684848440220 0.1241597991825125 1.3063187711713877 64 57 49
0.4245463170662785 0.3295880359168140 1.3293073319230015 53 44 37
-0.0233360938627301 -0.1979357983648601 1.2872040733376586 55 45 44
-0.0665111890848069 -0.0098162868098545 1.2831534929124315 209 194 175
0.1429208116549734 -0.1607944055884964 1.2998986096376810 51 44 36
-0.1494234877733792 -0.2684361679736944 1.2819778595432432 192 47 42
0.0337452981313615 0.3347849524944784 1.2907963525283495 191 113 77
-0.0916776057820049 0.2320965388191218 1.2837685948928190 181 150 130
-0.3820423869901577 0.0147251231163582 1.2676464672838026 57 39 35
0.0893879920437126 -0.1117953012866856 1.2967459466936861 196 39 34
-0.4103605703513327 -0.1052318375059238 1.2656738361876014 84 56 35
-0.3085677910709603 -0.2774453504477148 1.2730169495772801 74 55 49
0.1735016624406603 0.0241193864743883 1.3023217514602869 59 50 43
-0.2949990080246558 0.1664248209543818 1.2728663876043123 150 131 117
0.1504264045341066 -0.0924598554007707 1.3048013355221162 148 136 110
-0.1692609974663964 0.0534434859280809 1.2777388254829911 192 176 161
-0.2348754283926463 0.2478211574899123 1.2808954895999098 121 115 93
-0.4231889837310547 0.2428559664295526 1.2660905377072960 180 167 158
0.1896204991847726 0.0742804767361084 1.3039268969502462 199 181 161
-0.3598093944743173 -0.0766801432651318 1.2663370635933078 149 136 120
0.2702860313931267 -0.2341405130189994 1.3115836157083738 148 134 123
-0.1498214693209038 -0.0530886347119362 1.2781328271192558 208 190 168
0.2704535869738085 -0.2335227148235766 1.3106067900107605 148 134 123
0.1041017295008028 -0.2006296375975119 1.2985317344028007 172 156 141
-0.3900410027786780 0.3229168660387677 1.2724928569880141 108 91 63
-0.1496990573814293 -0.0530519294462043 1.2781359735571185 208 190 168
-0.2559655290861929 0.3296293326447589 1.2807413881554293 172 24 22
-0.0666024347027274 -0.0606414367155332 1.2859635285924018 79 71 68
-0.3145304121408477 -0.0497434289070219 1.2733346082478001 46 39 33
-0.2955867342080611 0.0883897421260604 1.2715832255365578 43 35 32
0.0704459534626157 0.2351599581326331 1.2969100643393849 142 143 129
0.3725701197605095 -0.0261031922254336 1.3232666378078743 58 50 48
-0.3898157560281561 -0.1550166718897447 1.2629240480682449 91 42 45
-0.0459740789527299 0.2576409097511019 1.2846936990101661 196 152 113
0.2231126889010140 0.2800988391714276 1.2995318853017037 154 142 104
-0.0269751267780971 0.0994313207002169 1.2851516534907832 147 146 126
-0.1522549791387779 0.1013925916460457 1.2776244595344690 113 109 98
-0.0830458087272097 -0.3645578181240851 1.2893521440965956 241 225 189
-0.0176162019897652 0.1051135209505380 1.2817538547338221 131 126 122
-0.4959692030280949 -0.2301765550315960 1.2618231632991659 147 114 107
0.0107434402045457 -0.3484929410679571 1.2951271757184166 235 223 185
0.1977940044952450 0.1311744571784795 1.3022415024471292 97 89 86
-0.6071135690928853 -0.1790593330595935 1.2639771932522623 152 130 93
-0.2876416733646089 -0.1746092638006030 1.2719579246726127 153 115 94
-0.5779693050295708 -0.3101831124336647 1.2621951967196117 206 203 172
-0.2325814455417289 0.1347724381611607 1.2753061005011133 186 140 65
-0.3083161372451242 -0.1570632797047628 1.2704354908301094 174 133 101
-0.3421096053481644 0.1437219289689071 1.2705576347194412 153 119 30
-0.5200312260079460 0.1464110678265992 1.2684142818593636 209 195 168
-0.2125097842870737 0.1576826580317875 1.2763853467571560 174 123 66
0.1485594607878693 0.3455708391574978 1.2941699587572324 135 102 85
-0.0370196955871001 -0.3035117471675298 1.2881869865183246 156 134 113
0.0214145288989649 -0.1097423738916668 1.2903303656954108 157 152 130
-0.0698354899784978 0.3646424462367133 1.2856359941292554 51 52 44
-0.4485311869409508 -0.0891527622985555 1.2678824095361534 150 115 87
0.1111402088078475 -0.0916294190962621 1.2979136664113793 157 56 44
-0.0845904431508602 -0.0868253332077325 1.2830936842366230 155 147 128
0.0339477936732117 -0.0841447594370986 1.2916600906742968 160 141 111
-0.4670752902374725 -0.2212026684605130 1.2641980383150202 216 195 164
-0.2678541531821431 -0.1811325792490389 1.2731993807869366 94 41 37
0.4037575202876136 0.4621632972108751 1.3377999670596268 208 186 137
0.3961704488061667 0.4631675330808987 1.3371354903595407 209 186 144
-0.2972841199500348 0.2143893045424038 1.2732012694207586 183 126 47
-0.2388763585246959 -0.1549278328406882 1.2752518031368070 129 110 77
-0.0427379331811959 -0.1511702903908127 1.2866854027789068 149 146 127
0.2156494824603441 0.1331298636455388 1.3035257424056688 107 98 89
-0.0804489220556849 0.1287846499273283 1.2812797859326956 177 168 137
0.2209356388589587 0.1565891456041702 1.3036511545148082 114 103 97
0.2209356388589587 0.1565891456041702 1.3036511545148082 114 103 97
0.1313065869875664 -0.3028420338050761 1.2995975913044202 173 157 134
0.1651925465074874 -0.0887175804555921 1.3020163138995300 156 147 130
-0.5686823702020455 -0.2425372511463324 1.2638199687086109 210 201 160
0.1720365810528558 0.1891136112475987 1.2982136861357270 65 49 49
0.1720365810528558 0.1891136112475987 1.2982136861357270 65 49 49
0.0281199786425291 -0.0723478529035520 1.2911367822134776 115 111 99
0.2188200179879385 -0.2208964953175267 1.3054650126058198 147 139 128
-0.1558062653561346 -0.1841005364502771 1.2800453057379846 168 140 118
-0.0951855743378737 0.2090146722959060 1.2823420463081092 154 131 115
-0.1666877573910200 -0.1586696202385290 1.2793050438856517 144 128 112
-0.0559744087655853 -0.1510644030125908 1.2855841022476324 153 148 144
0.2870618308459114 0.2316474006770308 1.3072684126546323 157 132 112
0.0128705456741592 0.2212931338389291 1.2867069907399160 169 152 132
-0.4875802865064247 -0.0378390570339670 1.2653165705677631 228 215 181
-0.4747647291367698 -0.1272101688741498 1.2651342130541481 217 209 173
-0.0725162820268485 -0.0398474759328975 1.2837320034507020 214 186 172
0.1891428151618005 0.2357996142647468 1.2981110534571323 163 156 127
0.1994449237482017 0.2478130052468014 1.2984113874272085 158 142 117
0.1907136905567831 0.2391649577883354 1.2983933161177648 125 115 113
0.1582090457490560 -0.1095232968224987 1.3011984144372608 183 184 166
-0.2119349014090730 0.2548663432791510 1.2778020624020392 125 121 112
-0.1984395498649389 0.2367903145335868 1.2783740791974094 171 165 153
-0.1507604009174755 -0.0771355675655874 1.2785318182414314 198 190 169
-0.1475759877692223 -0.0721775435946687 1.2786020065697610 205 184 163
0.0236330407184975 0.2772949534488167 1.2882306831278902 133 116 98
0.0601815891012014 0.2891506814786068 1.2903213899772823 141 121 112
0.1662925762371552 -0.0434483543330972 1.3021544366263438 138 120 108
0.0237077285765174 -0.0393170863561636 1.2908659372363875 50 44 46
-0.1619690374007891 -0.0033513976253132 1.2772818889332513 77 58 52
0.0875026935133134 -0.0364005695025774 1.2958462081297164 75 48 57
0.1949990608306590 0.2800822796610042 1.2971844391242955 148 131 111
-0.1780205592941014 0.2978518696972773 1.2811801591473884 53 48 54
0.1663670452085626 -0.0276685934061303 1.3022114343554947 86 56 58
-0.3389308766911959 0.0023123281926372 1.2685457879408828 113 105 102
-0.2099321687294307 0.0105693092582219 1.2748302168912604 195 180 161
-0.0752050862915986 0.3122943353403355 1.2872230745998867 57 43 34
-0.1704036383922298 0.3257713497270314 1.2833293174780833 123 101 87
-0.4304705374046565 -0.0081542276070674 1.2670612267474557 74 56 56
0.3971559620851505 0.0295925681590796 1.3225975014004943 55 49 33
-0.0345734623543699 0.0316783665141721 1.2844215789913493 126 100 103
0.2952363360667861 0.0778074288000283 1.3113278414725325 195 162 147
-0.0449866963882119 0.0941754788209141 1.2839199666868928 230 208 194
0.1336688683993147 0.0592531318610604 1.2978456655224959 208 181 160
0.2893000841809722 0.4161887266796956 1.3287214685073370 193 170 129
-0.1218419847836532 0.0469675004294917 1.2779089299801574 135 125 115
0.3102395104486120 0.0876787729767185 1.3121328265968957 115 122 104
-0.0875241571007821 -0.3622145445519107 1.2896843081913882 171 137 89
0.0190392314209419 -0.3488266297230773 1.2964378190697672 222 194 155
-0.0122334089808746 0.3643332908351489 1.2882152724279969 183 73 74
-0.0185900502341699 0.3643780880587961 1.2877958969442198 139 69 77
-0.0157878384056426 0.4222418884822151 1.3071640174491519 223 201 162
-0.0197688276901060 0.4219292871029443 1.3066101535715600 210 182 143
-0.0197688276901060 0.4219292871029443 1.3066101535715600 210 182 143
-0.1706706671442016 0.2822335772738462 1.2811620555961098 131 119 107
0.1270747177998220 0.1213509681238029 1.2970532890060358 48 43 39
-0.0966247736396400 -0.0687710993714814 1.2812931473691718 123 117 105
-0.1596625727501358 -0.1726723925515850 1.2799151910612490 153 140 121
-0.1473886555899931 0.0781893100996832 1.2785627135248139 181 171 161
-0.1600532560322183 0.3013437093636029 1.2828747090534904 167 165 140
-0.2922865248704058 -0.0504757740690474 1.2705726021580848 152 151 61
-0.0764542999421567 -0.0510920469216047 1.2834550699484533 124 118 104
0.0226155015555538 0.3496055796025030 1.2902617752563512 124 42 31
-0.0141590788530597 0.3486460108316286 1.2891771620793098 120 46 35
-0.2718780359063826 0.0861625058021118 1.2732189516368708 52 41 39
0.0188940727525542 0.3558952223786219 1.2896614287113910 198 131 112
-0.2065238838488823 0.3177767767504451 1.2812143502241593 164 124 36
-0.2066377625098679 0.3177489681995179 1.2810580370062985 164 124 36
-0.1455351431547288 0.0943093498395763 1.2782876190731445 125 120 100
-0.2088582483544154 0.1616630047308055 1.2766930790451645 167 119 47
-0.2491116546375260 0.1150260458631944 1.2738822209777416 142 120 47
-0.3642019582722514 0.3485249476105186 1.2755282722631942 50 36 36
-0.2164876205871833 -0.0037854779281830 1.2747250987931724 84 56 52
-0.3642019582722514 0.3485249476105186 1.2755282722631942 50 36 36
0.1691375267307104 0.0006950841219817 1.3025756361198211 156 85 29
-0.1095055740371073 0.3641078755353284 1.2847283386870467 84 58 69
-0.1054301291499915 0.0064475814134007 1.2802406589559467 70 64 66
-0.3861949081919002 0.1725729520198803 1.2708199923565791 135 149 152
-0.4266897286746295 0.3547820483783365 1.2723872155600326 74 43 49
-0.0105329437522083 0.1832688210040591 1.2863010794810485 122 110 94
0.0011658669525929 0.3523530427036633 1.2888088487846081 208 133 101
0.1049337667634960 0.3621379571301446 1.2930085643717755 76 55 54
0.2027187814044753 0.1670875093133785 1.3020817555800268 89 85 76
-0.0352480998574480 0.0926740702313182 1.2838330404453082 199 185 158
-0.4293519148246712 0.0296379077163751 1.2672191043047270 44 54 90
0.0811520848853063 -0.0803137559834540 1.2960076422378894 160 145 124
0.1161388704579208 0.0332525121615025 1.2972555884208952 149 141 128
-0.1042963971607618 0.0335831826729624 1.2805862862644299 63 54 57
0.2939336294968967 0.0380011002858386 1.3114441332215185 132 126 100
-0.3804950612584509 0.3532636545425647 1.2746944762960009 27 40 72
0.2112737159159730 0.1846968842081055 1.3016956831335700 61 47 44
0.0166356553464210 0.2088864331184171 1.2870645650092694 187 181 155
0.0915058377698061 -0.2974306104116124 1.2958845881408199 151 149 128
0.0167819693334578 0.2088543612274757 1.2870122336964145 195 179 145
-0.4267033730407464 0.3656914799701802 1.2724097659036924 129 36 29
-0.4267033730407464 0.3656914799701802 1.2724097659036924 129 36 29
-0.0237740865782312 0.0645142761182129 1.2856229645397959 56 53 60
-0.2141385016345456 0.2153602579933361 1.2762799360318693 55 43 53
0.0896113149145500 -0.0347761221428231 1.2954923783757257 91 63 77
-0.1417846023206326 -0.2029755074620275 1.2812736144532579 178 153 133
-0.0892654934568913 0.1393122008173819 1.2811702915684988 51 42 35
-0.2838747729327626 -0.1622125961992134 1.2724175101772595 60 51 46
0.1717816835270580 0.2539380111426843 1.2961496657507081 112 107 88
0.1717816835270580 0.2539380111426843 1.2961496657507081 112 107 88
-0.2401409889864961 0.1832416915440348 1.2754284162411804 34 33 29
0.1979157822124233 0.2714263418215754 1.2971185984699427 125 113 87
0.2746717174802450 0.2629236095103661 1.3055198864213498 147 133 107
-0.1115373284069765 0.0321637389695143 1.2800116164674822 164 149 126
-0.2413477526740716 0.2526079629964482 1.2763463920265374 55 42 49
-0.2960929032467622 0.0364647283146354 1.2707025373299641 134 146 146
0.0592001027174956 0.2204751716093077 1.2902031714096889 203 180 164
-0.0554268415882019 -0.0793890911319911 1.2843148517342229 77 64 58
0.1556515902051553 0.2925089743644497 1.2944279081990941 131 112 106
-0.0451435747223082 0.0482790579983705 1.2843577027000415 71 62 67
0.3149491767336899 -0.0442556503563280 1.3160449865868176 70 56 56
0.1233591116422327 -0.2979567133310348 1.2986281057967219 171 159 133
-0.4311782135943638 -0.2290967336751386 1.2628129935098600 180 138 139
0.1404480192104328 -0.2465371255547725 1.2994446708858569 153 140 124
-0.0508089358144499 -0.1579169847954107 1.2859495967793046 60 46 69
0.0486410805542297 0.0325134894468097 1.2908944729320897 62 52 51
0.1510041275451720 -0.1164653135460053 1.3005561578881240 205 190 159
0.1509788420334310 -0.1164573832286802 1.3005427487798560 205 190 159
-0.3534035281712102 0.3567325830369165 1.2756129267910357 124 137 145
0.0098413208945080 -0.1126439207924959 1.2896544220047659 54 45 62
-0.1431073133212568 -0.0813434891009617 1.2789868744171948 199 178 159
0.0723560939821131 0.3508629640415782 1.2922339561902056 202 132 107
0.0100030952225576 0.3488629433470449 1.2888515204327518 121 40 36
-0.4063577461629605 0.1381315052192021 1.2691009870915131 127 141 152
-0.0524969900649194 0.1712414041661033 1.2844157752392027 60 46 45
-0.1995178460006391 -0.2587905756782604 1.2781560828635516 149 55 45
0.2472828554585546 0.2362491761804520 1.3038771031220768 175 159 134
0.2472828554585546 0.2362491761804520 1.3038771031220768 175 159 134
-0.4259537522081656 -0.2431847810479728 1.2639379240315858 187 47 50
0.0835861462044005 0.0784362017234944 1.2938592027277540 192 176 161
0.2616040969982557 0.2099433250617745 1.3060477956758128 49 42 36
-0.4507463826639909 -0.1665647611320967 1.2658112453831274 149 130 90
0.0004318588514116 -0.1700783661602490 1.2898865614149460 154 141 132
-0.0368663786143123 -0.2243767444305098 1.2865634095550929 45 37 35
0.0770436563656877 -0.0960505815584030 1.2955996878387803 178 92 15
-0.0688800192696335 0.2412452501470544 1.2851043100908977 59 50 43
0.1528648587623868 0.3095283748606163 1.2950734571381828 172 117 110
-0.2162557127006737 0.2981099022661286 1.2796986670459691 137 116 95
-0.2387490027858207 0.1777715257682502 1.2743158036140096 51 44 36
-0.1123247558781507 0.3362770247077733 1.2865966689804773 161 147 138
-0.2408227566322252 -0.0944704012761333 1.2746018308401093 53 39 38
-0.4105119676623004 -0.0980793286904052 1.2641991932151730 127 113 42
-0.4105119676623004 -0.0980793286904052 1.2641991932151730 127 113 42
-0.1630522394668064 0.1337761194649810 1.2778355627550186 207 152 131
-0.2448741786937934 -0.0936861045792572 1.2741117372975979 44 37 29
0.1347103660976013 -0.0837611436282784 1.3005385671983167 149 140 131
-0.4078946865480758 0.2688259387452092 1.2698474914665181 185 162 144
0.0346195913466483 -0.0547381700829186 1.2906700179837998 54 47 39
-0.5595774905499949 0.3187832730097377 1.2758647407987673 213 201 163
0.0556005589312579 -0.0123480172921015 1.2930474904971945 74 61 55
0.0971692853621866 0.0990071466787059 1.2938743677796669 103 102 97
-0.4095505015131519 0.0482826656085619 1.2683315185560411 137 129 126
-0.4402463119898555 -0.2792245227550176 1.2647205236836416 209 192 182
-0.4223260050559678 -0.2016487957957324 1.2611768822826763 84 38 38
-0.4221839664861932 0.3284960862424182 1.2728248013095897 170 30 29
0.0914004207321917 0.3515686694698211 1.2943923215436783 90 56 44
-0.1011648508684978 -0.1397608390610940 1.2836507026104151 49 40 43
-0.2812743432968220 -0.2873176870713529 1.2729691616082299 74 46 42
-0.2835328511542864 -0.2857141756411177 1.2749091160729087 83 57 58
-0.2384231454576733 0.1620505178200318 1.2754268940814024 45 43 31
-0.2951399007783939 0.0100361721217037 1.2705611303892659 37 35 46
-0.2951399007783939 0.0100361721217037 1.2705611303892659 37 35 46
0.3064204422308260 -0.0138530448715364 1.3150121967409043 67 46 61
-0.0409194642303319 0.0011426072929288 1.2844224524872792 211 195 180
0.2453652199229116 -0.1507082798056466 1.3083113731236604 156 139 131
0.0142538672047194 -0.1143338593338823 1.2898893801436977 159 158 140
-0.0369689472503797 0.0407279165822268 1.2845761237464040 208 196 184
-0.1073362539395294 -0.2493434383800879 1.2841616883772664 161 140 121
0.0788047844123181 -0.4538621514069786 1.3035465051915365 221 212 173
