ply
format ascii 1.0
element vertex 689
property double x
property double y
property double z
property uchar red
property uchar green
property uchar blue
end_header
-0.4517282626045949 -0.3753268733943369 1.2645454641190772 197 177 144
0.6324788575690428 -0.4438899840866791 1.3380291142712508 221 202 159
0.0701521273149389 0.0846850972552206 1.2923875146060224 63 43 55
-0.2825377790909469 0.0454535595980847 1.2716817047901585 175 144 77
0.3193726427350311 -0.4263820634883717 1.3164259524182873 229 204 163
-0.2642992341079438 0.0850799658492854 1.2729654715252832 146 44 21
0.3362783494585319 -0.4268919260132550 1.3174801971682450 223 201 160
-0.1231776045268913 0.0855746425612813 1.2794367288021515 50 40 38
0.2090542863729447 -0.3851515521135072 1.3084126304674730 230 214 180
-0.0619183678915029 0.0479843685559571 1.2831600057817276 166 155 135
-0.6031840117052307 0.0296987075371926 1.2675209065447874 190 178 156
0.3098935690726358 0.0878425062592410 1.3119721704810914 133 130 113
0.2130370442867483 -0.3855289048529602 1.3088654636841284 234 209 178
0.2246197541429634 -0.3855253427548925 1.3096353501739666 229 206 165
0.4332133909201316 -0.4285800646439628 1.3243226611059529 214 197 154
-0.0269891572292995 0.0887217923840919 1.2852951629795031 113 106 100
-0.0571848176802588 0.0489897241169105 1.2832562887063674 70 49 54
0.6084679259641103 -0.4042675213328044 1.3346875424779772 206 182 144
-0.3193599517733306 0.0897638905690242 1.2703479613276742 35 34 52
0.1421321735589713 -0.4144503014418076 1.3039751906852561 225 205 168
0.2287357700127762 -0.3853055905256548 1.3097757048503882 233 213 180
-0.5170685725015710 0.0530057824777618 1.2676143662043837 201 181 154
-0.6062517844095837 0.0927131660453799 1.2688873130250333 210 196 169
0.2993850763954813 -0.3859597303823540 1.3142939181050000 151 125 90
-0.6062382975579308 0.0926840491580810 1.2687267316763842 210 196 169
-0.2875224848044513 0.0293363893308787 1.2710737835722730 159 145 74
-0.4200890861028850 -0.3696695603094535 1.2672363015675849 208 191 165
0.1147974404748083 -0.4073091038576036 1.3027323188592672 223 195 156
-0.4162498250535425 -0.3695770093944251 1.2672569700433933 219 198 171
-0.1087798743636831 0.0285099078741872 1.2802082594034541 66 54 66
-0.4124030353438413 -0.3694559126004756 1.2677527606993446 210 193 167
0.0915015447304935 0.0905604351302929 1.2940157062105415 99 92 84
-0.4039965840775651 -0.3690176215686501 1.2681566076837443 201 181 156
0.0921082732892417 0.0557829286618169 1.2946505132768307 57 44 62
0.1328397106701215 -0.3740467637203970 1.3033927498191382 160 135 94
0.1410829753851913 0.0575299225898531 1.2981287049140882 192 177 146
-0.2116089371153452 0.0310067190811281 1.2746443592742494 193 104 86
-0.5999572830269295 0.0941406199430129 1.2692039603624055 188 179 140
-0.5658612023411005 -0.3955917044023844 1.2610262530758698 157 144 112
-0.0036504189149656 -0.3680469381445519 1.2942769028375429 166 146 109
-0.5998425069481061 0.0940549069097023 1.2689613957578973 188 179 140
-0.5658612023411005 -0.3955917044023844 1.2610262530758698 157 144 112
0.1412448595759702 0.0575554212560235 1.2982684126904158 192 177 146
0.0000348509606228 -0.3681624226046074 1.2946794310229959 157 135 98
-0.3180093901568576 -0.3633395946122199 1.2741119719180238 220 201 171
0.0859237459332302 0.0582112413953556 1.2938924973986370 210 194 161
-0.5385394416907020 0.0353736758415008 1.2719534995475015 200 179 150
-0.0349621005211474 -0.3663552386358612 1.2920367433492699 221 205 172
0.4835711896962037 -0.3860050407376123 1.3265764955702957 226 202 176
0.5226151186632926 -0.4214504544876994 1.3296433608426270 230 209 178
0.2183546974401923 0.0940825300211706 1.3044768781012441 116 98 98
-0.2148302012302954 -0.3625868036853325 1.2809275908987432 217 191 164
-0.2064468788372023 -0.3623832645360715 1.2813381904692012 224 208 182
0.7200355067336870 0.0372969992578242 1.3534426690563643 230 206 172
-0.0326128679429472 0.0644110794401111 1.2851982261488955 148 144 119
-0.3117095828404208 0.0987308095000624 1.2709230857687555 38 41 48
-0.1736780985847293 -0.3614641136711791 1.2835150634406367 222 201 180
-0.0727266563301195 -0.3917886676122458 1.2899199859615718 216 192 158
-0.5759271905344266 0.0675604050704801 1.2686580213156695 204 188 165
-0.3111374243625527 -0.3595705351489362 1.2740951490496373 161 137 99
-0.4793209304882019 0.1016734900772095 1.2686171176026804 212 197 166
-0.2959836761342748 0.0360850519089368 1.2704783761703557 132 144 144
-0.3073121192747061 -0.3595889840819236 1.2745683917988977 132 112 79
-0.3193384084291517 0.1002384048822349 1.2705077837911853 103 89 88
-0.5752894503416900 0.0677596315600235 1.2678076038171566 204 188 165
0.0088945742503160 -0.3916332017226162 1.2952993603577954 220 207 173
-0.3200523576305975 0.0363995095854312 1.2692440397458036 141 146 142
0.0151885495394735 -0.3919074573805032 1.2958490938999652 222 198 160
0.0824678043403979 0.0664491038108681 1.2933938823404274 212 195 177
0.2232945154272380 0.0365835255256829 1.3060061558567986 140 133 114
-0.1560283884243753 -0.3583990253686828 1.2837795454221066 154 130 94
0.4432767169333039 -0.3770275942950791 1.3238759699305416 234 212 175
0.4520149610468731 -0.3770918937667433 1.3247176102450691 234 211 170
-0.0791845905165673 0.0394911098490162 1.2816467374699501 214 202 176
-0.5410041724889613 -0.3825960574987968 1.2641986527847813 182 163 131
-0.0206209936994723 0.0692230641561897 1.2864960389251887 210 199 171
0.4501453357527536 -0.3737737148776802 1.3249757590445645 178 150 102
0.1255331179623918 0.0406668723131574 1.2973366956922958 80 51 45
0.3018955172009200 0.0718293018301151 1.3126568095576081 206 185 166
-0.5617515462345405 -0.3531244620247727 1.2646868659517909 153 138 107
0.0082120980017339 0.1041219714139821 1.2875443043704113 192 176 160
-0.2655413765801385 -0.3523265104580751 1.2777199969827380 221 199 175
-0.2536976920880210 -0.3514039250273055 1.2786131969904897 209 182 152
0.4025317801434870 -0.3952332611159453 1.3209683066900650 227 213 174
-0.2668182294478575 -0.3491217905981843 1.2764629406601533 152 131 88
0.5863539700514361 0.0432219656028611 1.3425930620970068 230 208 171
0.2344052506373535 -0.3606679164759906 1.3102230284737137 235 210 180
0.2384901641030746 -0.3610923249482795 1.3106914551943887 236 213 182
0.2494046783615806 0.0430514477409298 1.3077528494303285 170 156 127
0.2879354093424131 -0.3891181066715839 1.3133385465186116 212 190 153
-0.2590915959841529 -0.3486613353777623 1.2778442882018708 170 141 99
0.2542629493611954 -0.3611597805804677 1.3113707338400868 236 213 182
0.1968757957173980 -0.3584773307305469 1.3078603911172202 196 164 117
-0.0212686094943309 0.1056451265806153 1.2853770181472242 152 149 134
0.5591349560236991 -0.3730567352279893 1.3304880749165375 217 202 161
-0.5642330351765075 0.0460550479155975 1.2688755927441562 195 185 160
-0.0212686094943309 0.1056451265806153 1.2853770181472242 152 149 134
0.3751239584678013 -0.3638779557242829 1.3191000246642912 236 214 175
0.1946406686537883 -0.3558331026306256 1.3077525336251796 226 211 180
0.2960985761198672 0.0814947897354097 1.3112809699674570 126 106 108
0.2069275719281882 -0.3561956140251852 1.3085027310268011 231 215 182
0.3792449134156035 -0.3634118739554038 1.3190119665758973 235 209 176
-0.1830240908693336 0.0812946216292292 1.2761240935235230 186 161 141
-0.5746552992094678 -0.3732801374778876 1.2601783663412283 114 99 68
0.3877327133780493 -0.3637587067568299 1.3193442973346683 230 205 175
0.1906342672023711 -0.3551801670448962 1.3073465421218200 218 204 169
0.0237943076564943 0.1091860436725961 1.2890111910466624 94 83 81
0.2108956752815364 -0.3561013878353012 1.3086903133880274 233 208 186
0.6816456383554257 0.0491833404036692 1.3510357740574326 229 205 169
-0.3445544977998530 0.3494276306606875 1.2754545600138483 69 37 50
-0.6280237263356045 -0.3737083473120931 1.2640962473979385 168 157 129
0.0110195826852737 -0.3486147902064552 1.2957662370358092 235 212 178
-0.6056611688749947 0.3564293042553333 1.2727495030878522 126 105 88
-0.5619061094358559 0.0497756979082793 1.2689293041660843 150 137 105
0.0147938934858530 -0.3483633634781804 1.2958219460328575 227 202 171
-0.3572647853961960 0.3517063336832784 1.2755661279344310 145 125 118
-0.6155723426084198 -0.3697058000496610 1.2599529073694531 98 81 55
0.0271930382939123 -0.3485297996111096 1.2966687563072599 230 213 185
0.0989523773746920 0.3537561026540716 1.2925870889968429 68 50 46
0.4630394169222266 0.0491107491187298 1.3329481136016272 190 154 128
0.0234663533853097 -0.3481625282266673 1.2962477691930008 227 206 179
0.0366093968906256 0.3537445163039626 1.2907128565651522 224 179 140
0.5165072952526493 -0.3657457537360524 1.3289422780066316 229 210 177
-0.0517587373768833 0.3531184099737821 1.2871869857673937 134 117 87
0.5120981056820270 -0.3652095420006477 1.3281356824035793 229 209 174
0.1013749194297187 0.3551222548808577 1.2928749437788696 177 170 142
0.1302692514986698 -0.3774325283822703 1.3027720695869422 229 211 171
-0.0719567775069821 0.0483370067192095 1.2823812704140665 212 197 174
-0.5112270738533295 0.3568439287872619 1.2730713449131834 191 177 140
0.1342823081165020 -0.3777754770862992 1.3040191193019814 232 213 183
0.5316183163228900 -0.3657053661244672 1.3298746697030874 229 209 182
-0.0140130275834668 0.3543836717107946 1.2884027428029516 219 172 144
0.0583264617129059 0.3565482534885240 1.2912004782693236 231 171 143
0.0255955480417499 -0.3452324008117542 1.2963460498608630 158 135 94
0.5103561402773283 -0.3618747813329603 1.3279750848736886 180 147 114
0.5465086447766805 0.0522714034420196 1.3401401149110648 226 211 172
-0.0024541172930732 -0.3712660334386004 1.2938482573604861 232 213 180
-0.3335826606422101 0.3565822723958363 1.2762937067639086 73 52 51
-0.3746918718223560 0.1107514926652462 1.2654307100408653 29 28 33
0.2708192870713916 -0.3496242143829655 1.3124791628781585 228 208 157
0.2747072460378766 -0.3497195734302410 1.3126311692173602 241 217 181
0.0657628814136975 0.3602499502246089 1.2912306418055024 210 132 109
0.3505712837362069 -0.3820059058055689 1.3172349219990833 217 195 156
-0.0848452773896308 0.1110409308423065 1.2811976365717443 69 49 50
0.2907705490655891 -0.3492289543982331 1.3137011445863214 223 208 175
0.1870592430977999 0.3624736398782317 1.2960198768230617 135 83 70
0.3616071219943635 -0.3816946780785504 1.3172041977653899 239 212 169
-0.2243042714533074 -0.3343502825264221 1.2804865261229326 218 197 168
0.1519372589507236 -0.3422893213585989 1.3051566468400242 224 196 148
-0.0973473738039674 -0.3644757739758911 1.2883540872629524 203 186 158
-0.4915101288357184 -0.3323432161916622 1.2620206641163172 200 182 158
-0.4085882795496449 0.3613267707304925 1.2740780391631128 146 116 105
0.0481026458804296 0.0500643166762476 1.2909921433734415 162 151 121
-0.1193460399035899 -0.3346828789535127 1.2875382650819314 228 204 160
-0.0930600844348167 -0.3647314408527527 1.2894041406436403 211 195 169
-0.1193460399035899 -0.3346828789535127 1.2875382650819314 228 204 160
-0.3252124939094485 0.3622554868644016 1.2765493882187042 65 46 42
0.0481026458804296 0.0500643166762476 1.2909921433734415 162 151 121
0.4959705734513626 -0.3861648175040229 1.3276493459723016 227 210 180
-0.1128946941449676 -0.3344488068647567 1.2879017235438193 223 200 168
-0.1263693473767393 -0.3338036014870200 1.2871620443853078 215 185 157
-0.0787409096447919 -0.3642815699115737 1.2899273499408559 220 190 162
-0.4538031743614213 0.3650784326510714 1.2750976348669016 219 199 172
0.1318974148350528 0.0512481437811106 1.2977348789459984 87 45 47
-0.0922055403328709 0.1144966968714307 1.2810600482670227 146 134 112
-0.1583732065796701 -0.3615093731102798 1.2846343363261661 218 196 159
-0.4053793177435033 -0.3260225908994958 1.2679543798276243 229 202 173
-0.0768413411134374 0.3621691965215835 1.2855935734673649 185 181 154
0.0459474530583508 -0.3652509089209299 1.2974253411426870 226 206 171
0.1051124076710463 0.0523079185411896 1.2955894987247427 179 166 134
0.0385034067256391 0.3636459573126926 1.2899786900306420 174 84 73
0.0456748277271948 -0.3652246332068144 1.2973793016775204 226 206 171
0.0705824816288711 -0.3311164812281672 1.2997670891609692 236 207 177
-0.1714926167602858 -0.3248274988172223 1.2841120253841003 229 207 184
0.0583960858082581 -0.3651481330581313 1.2984275847984046 229 209 184
-0.2439274895905943 0.3637087655335031 1.2790432132111891 185 128 49
0.1051124076710463 0.0523079185411896 1.2955894987247427 179 166 134
-0.0313506347542796 0.1154968339205212 1.2846056334833902 80 67 74
0.4720728282724250 -0.3445350223054534 1.3262938638645594 235 208 178
0.4565722294829326 -0.3436626939214989 1.3247810261869850 226 197 165
-0.0320722142161921 0.3644340974575231 1.2869485812072146 86 36 63
0.1176128092553164 0.0517473809371079 1.2965992733871512 125 118 89
-0.0516264660402502 0.3646657471120712 1.2862845047784932 35 44 61
-0.1587550079102052 -0.3582563077416079 1.2845561274083717 182 152 114
0.0596858601626689 -0.3270537853357314 1.2990804274570675 145 115 79
-0.3476969549377178 0.3659715581368495 1.2753061083445809 140 35 39
0.3019837033103328 0.0530039362371766 1.3121368416927590 152 144 123
-0.2931807883173667 0.3665428499807270 1.2777006765464303 48 51 44
0.6804915668434014 -0.3510904525071409 1.3407012994451413 224 198 161
0.0963728080789788 0.0525500016159412 1.2950300724339661 186 173 139
-0.5981719497493154 0.1221850765899512 1.2691431655020036 202 192 157
-0.2383946043291049 0.3659158110456828 1.2798324988558949 176 33 25
-0.5853797919460858 0.1220481126062237 1.2694334924333186 222 196 159
0.0963728080789788 0.0525500016159412 1.2950300724339661 186 173 139
0.3578688810785839 0.3786861882475828 1.3130087781482491 138 97 75
0.5724742733357969 -0.3443453988172134 1.3328929154305929 223 199 155
-0.5896299520769959 0.3725016296695297 1.2742448268732660 186 173 139
-0.0334433554446726 0.0526801704481536 1.2851870319757270 72 50 62
-0.5289470652893166 0.1210403794862728 1.2689296909949146 208 192 159
-0.2610438015119839 -0.3520579200009147 1.2782279456183274 222 194 154
-0.4427693513854570 0.3688386417545589 1.2711633299351692 229 208 187
-0.5780345544393606 -0.3101680092227728 1.2619220359030476 179 168 146
0.1568547286196882 0.0548736594439099 1.2997606000235782 198 193 155
-0.3022987242318983 0.1213981687724201 1.2711136534031773 113 93 84
-0.5711163565535635 -0.3101644587048337 1.2626203130190194 188 170 148
0.6106706061594210 -0.3773688707925745 1.3348430954214203 222 202 167
-0.5626316617810397 -0.3092581322895639 1.2650355256993120 169 155 120
0.5741680367104116 0.3955110383603074 1.3477353790386686 221 194 167
0.5527197186080272 -0.3729042455902812 1.3311214092875872 224 201 167
-0.5627454795655161 -0.3093163457094183 1.2649375087135253 169 155 120
0.3238662762445826 0.3807908963650629 1.3114425321103207 123 79 66
-0.5602574695593259 -0.3083390657779017 1.2675016681627473 155 142 110
-0.5957376116566058 0.1255289562181464 1.2686748072505081 140 114 97
-0.5745253251040819 0.3770684105430732 1.2733374577425076 137 110 91
-0.5788715994822398 -0.3067615142415609 1.2619872113926534 119 100 86
0.1959738054858312 -0.3524526152744442 1.3077906838311775 200 178 137
0.6694088637106449 0.4040607535813209 1.3545546407419466 221 202 170
0.5973107574527126 0.1305057322422238 1.3451249338538516 224 207 161
-0.0475235807360333 -0.3038487419002274 1.2873853112778801 67 47 40
-0.5241646528521812 -0.3406395439142491 1.2597458122204839 192 177 148
-0.2012093503663551 0.0569321000087942 1.2755770745892523 184 102 80
-0.4360512394338013 0.3767614582251362 1.2719637482856241 137 112 108
0.6063045573474515 0.1304358326410519 1.3455036044648807 227 205 166
-0.3888287195023671 -0.3006982298289780 1.2681963554136919 128 33 27
-0.4360607294977997 0.3767387020931741 1.2720643822204558 137 112 108
-0.6155499038155177 -0.3013670496247764 1.2605155884280748 104 84 59
-0.3667907991258821 -0.3372863837467616 1.2707499806484106 215 195 168
-0.6117744786093468 -0.3013499500648636 1.2602997985535453 104 84 60
0.1843441775844885 0.3813943149311631 1.2974026391642095 134 89 83
0.1617698987572565 0.3814876944826001 1.2953766306018755 126 78 66
-0.0356980302612932 -0.3396748365518997 1.2926973505225223 220 196 162
0.4847756797113966 -0.3196875436772337 1.3277726673391994 232 211 192
-0.0318898836466671 -0.3400578688579291 1.2933345964757572 232 209 177
0.0591751452159351 0.0597096352538151 1.2919900550235472 53 41 45
0.4162163509965554 0.3978456965297264 1.3373150874911290 208 185 153
-0.0318898836466671 -0.3400578688579291 1.2933345964757572 232 209 177
-0.0166251429448941 -0.3396891625660601 1.2941515743774057 214 195 165
0.0590509218090479 0.0598323935380386 1.2918096704236257 53 41 45
-0.4852933769314832 -0.2977070797221628 1.2621872606805944 217 200 170
-0.5125717621596281 -0.3334820422005229 1.2606401948042227 196 182 156
0.1537926713437642 0.3815694855919016 1.2950536004186091 127 78 71
-0.4037829362029265 0.0608828558910579 1.2677151259996069 113 110 95
-0.2570211159475821 -0.2973014950334357 1.2747911409305883 181 156 136
-0.0922351701452463 0.1254759439689417 1.2803121869034890 126 117 108
0.2414332881665687 -0.3061248174664127 1.3057392164551060 50 45 42
-0.4012108866024141 0.0630768816314120 1.2679024231850875 52 47 41
-0.0921165633247310 0.1254174924836625 1.2807375935377279 126 117 108
0.1383827577552609 0.3818211477920001 1.2938946257319515 118 74 65
-0.1327626093588380 0.0639850170477766 1.2784961724502235 124 116 105
-0.2926315244258674 -0.3269590772238671 1.2749980533495957 215 196 166
-0.2938344461114913 -0.3271171072214086 1.2761493790303349 215 196 166
0.1075610419288697 0.3820586908226117 1.2923065707185346 132 89 82
-0.5842383572819702 0.0670108281630982 1.2681741037030188 211 196 173
-0.4909476706969919 -0.2943235893773932 1.2612868278171758 140 116 92
0.2302132610080000 -0.3031134614360123 1.3058687558703324 192 168 140
-0.0522760679147541 0.1277783651336126 1.2828711625285705 175 173 158
0.2633195949608719 -0.3032829165547923 1.3072822723856705 203 181 158
-0.2415120058220661 0.1291156478350486 1.2744919746286996 54 31 25
0.3090186767460022 0.0662993301062588 1.3123845090798465 147 145 122
0.0674946293824928 -0.3303442586838046 1.2999637451584944 237 214 180
0.4457959085501997 -0.3082743952750729 1.3161914405975024 29 26 11
0.4830285164224223 0.1402290575240445 1.3370819070974336 229 207 170
0.4457959085501997 -0.3082743952750729 1.3161914405975024 29 26 11
0.4399453820031970 0.1398291658909805 1.3250197702588913 170 156 129
-0.4931190471038343 0.0679625622570581 1.2673187751857740 206 193 161
-0.4011928738178047 0.0679737519238261 1.2678047617128685 126 118 99
-0.3468297330456600 0.1353893845572379 1.2700525354445924 152 130 31
0.6985861561288850 -0.3168924199320683 1.3423836486982901 172 146 109
0.4849506126523888 0.1436657359155719 1.3369154172582511 177 142 100
-0.0147920544501373 0.1382486203896922 1.2861553752705104 155 147 144
0.4128446891776937 -0.2997136399949646 1.3159530921977667 136 128 109
-0.3087300697662494 0.0692893579218812 1.2704668788307605 53 50 69
-0.0147393780182763 0.1382594842420180 1.2859986114476420 155 147 144
0.0203654806458414 0.0690068887466436 1.2887032625439678 160 149 131
0.5290111441268788 0.4124658931235135 1.3449923413490612 210 195 156
0.5524514580254476 -0.3042214485608940 1.3330788356659460 226 203 171
0.5568023183076988 -0.3039497323456617 1.3334251331576419 230 206 178
0.3043377291904398 -0.2922785988364857 1.3101146133488459 142 142 116
0.4433035238084183 0.4148567155636504 1.3399713161873315 204 187 157
0.2279492782685034 -0.2846606824979789 1.3052741723879573 143 135 112
-0.3722633221476762 0.1425658032762447 1.2703388153845467 138 128 66
0.4935844296726776 0.0751835463411092 1.3371565359917674 234 205 165
0.5782651187036245 -0.3438051240407226 1.3334814530429877 226 203 169
0.6358648763972984 0.4247762400361373 1.3528769419791400 212 194 154
0.3822169112829178 0.1474640984243792 1.3202320610435085 180 155 124
0.4245156407489321 -0.3359079459993254 1.3222059283783540 192 157 115
0.5027089946708799 0.0751027716251902 1.3374766382539911 227 205 164
0.6493794374722344 0.0763247067690326 1.3477872830039510 219 196 155
-0.4735029847065270 -0.2742481529502011 1.2630152711192992 193 176 146
-0.4734209650220616 -0.2741338693404491 1.2633646040706239 193 176 146
-0.3699365233495607 0.1453979738127389 1.2709383791576481 94 63 8
0.1149652996704313 -0.2796612898873934 1.2981609511572261 156 148 129
-0.3953825641995480 0.3978932689183707 1.2799137937969538 185 175 139
-0.4689806858638506 -0.2734230322393275 1.2637105697782931 206 186 161
0.1155549819736012 0.4050887223937341 1.3160004076897518 175 154 111
-0.4689806858638506 -0.2734230322393275 1.2637105697782931 206 186 161
-0.2695407585855954 0.0804001251877679 1.2726870577759308 176 126 67
0.5771131534481534 -0.2959660320245373 1.3347191102676295 227 204 173
0.5209099931028766 -0.3267991909987376 1.3298986608142587 225 205 170
0.5920724934910935 -0.2970234053002334 1.3358436537873943 217 194 162
0.5209099931028766 -0.3267991909987376 1.3298986608142587 225 205 170
0.0408621529808906 0.0818609490984266 1.2902479723268523 203 194 163
-0.0433671408465598 0.4054534243354239 1.3046676588276778 179 159 122
-0.4554884681298905 -0.2711232288949683 1.2647913151662158 188 176 150
-0.5060311939821033 0.1496905826183439 1.2677691199960330 162 132 106
-0.4527277742549555 0.0840316165931109 1.2700904410332894 215 201 164
0.5747171451294562 0.4331552202910496 1.3485955123597744 234 208 181
0.5658819403403016 0.1578861710901502 1.3441800144674971 216 197 164
0.3939745280743098 0.4265604075586900 1.3353672029418313 223 204 161
-0.4528673646322864 0.0839158773984200 1.2700404597857622 215 201 164
0.6806160948077189 0.0906564356192958 1.3511464684313692 229 210 168
0.5658226746655428 0.1576812441120044 1.3437277462703066 216 197 164
-0.2764103601808544 0.4108333988346121 1.2883781368305134 217 197 160
0.5197269471181158 0.1574635949254485 1.3393898713131280 221 207 162
0.6806160948077189 0.0906564356192958 1.3511464684313692 229 210 168
-0.5947066731272677 -0.3038448760701414 1.2618518790799855 185 174 154
-0.3392070018368996 0.1486286991693840 1.2708861838029524 169 130 39
-0.2074969202571182 -0.3020924310444091 1.2779926174587304 179 141 118
0.0723856922606049 0.0872798736629562 1.2926241209961349 134 125 110
0.0723371753310354 0.0872265064401517 1.2925225419158493 134 125 110
-0.0646021471215113 0.4160336392192369 1.3031493854033911 198 179 147
-0.0228170521847119 -0.3035337494385085 1.2895039082993451 157 135 124
0.4605893407656015 0.4359220957262865 1.3405182435362553 224 205 162
0.5125735650643032 0.1587812806705152 1.3393152748825607 230 208 159
0.4801445422930639 -0.3194607618114517 1.3266085733953159 226 202 174
-0.0854829599891355 0.4158412136193721 1.3014552493139522 209 185 147
0.1113679543099396 -0.3048672920519671 1.2980365726006384 158 142 127
-0.5804273331459334 0.1551549621034889 1.2694341803371256 134 103 46
0.0869515001262451 0.0877551880674495 1.2938771500657245 92 75 83
0.4483441512443160 0.4361185104398654 1.3400216757447563 224 210 171
0.4483056860027367 0.4361672072865890 1.3397309808393894 224 210 171
0.4444961680311262 0.4368301569400767 1.3396502160654584 205 192 160
-0.2629243441473635 0.0885652915463255 1.2731494493744870 180 129 40
-0.5047786231765733 -0.2691787988133869 1.2607109317685072 199 193 167
-0.0068773542701924 0.4220326865950450 1.3073611383428798 210 195 164
-0.2631013918178174 0.0886503681848307 1.2728406351499622 180 129 40
-0.4970328850354555 -0.2690163380919574 1.2613600813225061 213 195 171
-0.0067926915615863 0.4218539414299321 1.3076101163997704 210 195 164
-0.2707498374386123 0.1538252630510735 1.2733949305148191 196 186 159
-0.3680040457071577 0.0904659591255037 1.2685548207197883 175 160 139
-0.4932685263912096 -0.2690753840040107 1.2616535193699947 214 200 174
-0.4893916690787365 -0.2692855959962520 1.2620923817147971 204 192 166
-0.4599333548672148 -0.2688767616254772 1.2641789436814654 111 87 63
-0.0195326340812371 0.4220250676620997 1.3064658567630485 205 182 148
0.2186213518769477 0.0910816018039579 1.3059072058572185 187 169 147
0.0226732828521923 -0.3018209877778257 1.2918223582437716 170 151 119
-0.0196663907841977 0.4219405792992142 1.3065644398666836 205 182 148
0.7097771767744759 -0.2966276156614864 1.3445506604989250 213 195 159
0.1707425056756374 -0.3054507747215544 1.3016994542096723 65 55 53
-0.0157743637198717 0.4222416466259271 1.3071995889371542 220 199 168
0.7163361734931263 -0.2967819736710263 1.3446591575722437 227 200 173
-0.0157743637198717 0.4222416466259271 1.3071995889371542 220 199 168
-0.5195970888781710 -0.2972877946409846 1.2604371119113502 203 189 160
-0.5195970888781710 -0.2972877946409846 1.2604371119113502 203 189 160
0.2378407562141585 0.4318290327679351 1.3248635346146274 209 190 147
0.2379221093942099 0.4319043773443558 1.3248738554999206 209 190 147
0.2259245695678336 0.4318542535606176 1.3246406443737722 206 192 147
-0.5066729665634434 -0.2654458876144445 1.2602416778227767 142 112 84
-0.4893862629352604 -0.2975760611136172 1.2618384409716095 197 180 162
0.2260987812143050 0.4317551169561549 1.3239943186496617 206 192 147
0.2299448171509472 0.4320588799406298 1.3246791305812669 210 195 156
0.6135824565052580 -0.2886376121556690 1.3376613435934999 219 196 164
0.6173912326346507 -0.2884953669540332 1.3381135122018226 223 204 171
0.2176109550767428 -0.3056988580526847 1.3043455997995113 162 146 131
0.6259378720717665 -0.2881143458644336 1.3382670293048629 229 205 171
0.6574709260397703 -0.2882441856181247 1.3402065845857742 220 196 160
0.6723807565188878 -0.2887392729864794 1.3419678312463634 229 207 170
0.0187276136155350 -0.2996938487001764 1.2916649525719868 171 149 108
0.3052525092753985 0.4389278078706066 1.3304485379302813 218 198 171
0.6762917327984562 -0.2883657729558494 1.3420460678300707 232 212 187
-0.3317086034760893 0.1598491469279172 1.2706694418406626 167 108 30
0.3052525092753985 0.4389278078706066 1.3304485379302813 218 198 171
-0.4099950555985337 0.0996426279002203 1.2680800512860426 157 146 128
-0.4711328045149030 -0.2957369404261903 1.2632667264794435 197 180 160
0.3092776080287167 0.4391854772315873 1.3303599616803792 206 183 149
-0.5278824197480588 -0.2953719988155897 1.2607801951850555 190 175 146
0.2692764063877989 0.1009158826026366 1.3084991119515637 135 122 114
0.1032329450383234 0.4335114463411071 1.3158657742891526 217 194 153
-0.4870137230324992 -0.2941478514016956 1.2614110747630474 140 119 88
0.1032329450383234 0.4335114463411071 1.3158657742891526 217 194 153
0.2205418672914650 -0.2655096546758990 1.3043347596414636 147 145 124
0.1885751862714733 -0.3022302805314113 1.3027149785605365 159 148 126
-0.5171198173150091 -0.2564840127015140 1.2605032455485063 188 177 155
0.6618768802917004 0.1758323735630577 1.3514108265760736 217 201 165
0.2425095368079633 -0.3026098871359841 1.3061364944472453 157 146 114
-0.0998220304262427 -0.2567216143672257 1.2843890080493356 175 142 125
0.5663935688596389 0.4588970699484102 1.3488318726851087 212 190 151
-0.4512806444968120 -0.2918828558499402 1.2653775814655404 171 144 101
0.5450646954803960 0.4588584139035572 1.3471422724527793 208 189 156
-0.4713413696967849 0.1020684181275299 1.2691485340941397 213 198 165
0.6656962885598907 0.1762042130892390 1.3516079676749924 231 213 177
-0.1293642059862787 0.4365403258360403 1.2995118799789349 202 185 155
-0.4683856877464548 0.1024503686446852 1.2691922490031098 181 164 134
-0.5705126013486954 0.1677515128212317 1.2693426959800447 220 211 172
-0.1140529687496348 0.4361451141895545 1.3006003804091664 206 182 136
-0.1143621583064947 0.4368985193205936 1.3009867749911204 206 182 136
-0.5674494662222649 0.1676602036040456 1.2700815321937331 212 201 169
0.5376647264330655 -0.3038305056858849 1.3314191099164610 221 205 172
-0.5674494662222649 0.1676602036040456 1.2700815321937331 212 201 169
0.2128250315238192 0.1033600155441822 1.3037309884870016 136 124 102
0.0473096669071342 -0.2825550457230062 1.2939360588023812 211 178 159
0.2815968123719213 0.4523746377353822 1.3287507500620606 221 197 149
0.5415238820681378 -0.2626207437782798 1.3332918730427237 225 207 171
-0.3168265528111636 0.1027810785457514 1.2702128590515847 107 101 101
0.5379659401052579 -0.2625363974854260 1.3331958394921826 223 201 160
0.1625789560372838 -0.2834398087424044 1.3009837975488656 167 149 137
0.5570944774828895 -0.2626962354849086 1.3342521354898536 233 214 181
0.2618588519032567 0.4526528550551365 1.3272418514303370 204 189 148
0.1502851375983743 0.4491738050253875 1.3197058666937609 218 198 148
0.3920240191979559 0.1725618217112265 1.3214463435338382 72 40 19
0.5815381001248614 -0.2627191622650347 1.3360879470685543 231 210 181
0.5891584629082270 -0.2630173764883481 1.3364636669793841 229 211 173
0.2716592283178122 -0.2850581290191995 1.3082558841707634 181 161 136
0.1587810818880417 0.4498618953059603 1.3197073470686598 225 202 170
-0.5685954666230520 -0.2425185972069591 1.2635913862914026 198 181 155
0.4125766648340400 0.4624737149325009 1.3386647430419711 225 206 173
0.1503198472662541 -0.2810281920637546 1.3002515310002605 165 152 135
-0.3263195245346139 0.1678907891991604 1.2716570140227801 167 114 46
-0.5686694942487548 -0.2425481735023056 1.2637826455194046 198 181 155
0.4125007416528733 0.4622845394576659 1.3383756689940081 225 206 173
0.1947755418056575 -0.2478192908083117 1.3032221009363747 57 43 30
0.5807039168761082 -0.2599920594601618 1.3360494613743230 155 131 93
-0.5881402631479474 -0.2744348831952960 1.2618777862805475 140 121 91
-0.1287296446713987 0.1684149659959740 1.2802169607150793 38 27 25
0.1397195765980894 0.4502237029596361 1.3186229939480352 210 192 154
-0.2068528786044646 0.1693384634744722 1.2775755556029389 57 34 26
0.6413793993447491 -0.2596830687169712 1.3406014138333746 224 205 175
0.4167542504527905 0.4626784148140571 1.3381214978484515 208 199 168
0.6532671680903299 -0.2601492159263835 1.3417691049679783 219 202 172
-0.5954088373415422 0.1742432896409978 1.2701680289336099 199 186 152
0.0245830578894622 0.4490404009662914 1.3100818825502023 221 202 160
0.6493242790173900 -0.2594342532743089 1.3409151237007022 213 194 161
-0.4628855236282482 0.1722258775467329 1.2710150276461980 159 124 102
0.4144848699399205 0.4656571863800101 1.3383795384335577 169 139 105
0.4182978227173961 0.4657916553327984 1.3388022335984389 164 131 100
-0.4128728604074886 0.1096798237285561 1.2682171648080820 149 145 134
-0.5875479559106409 0.1760234056314226 1.2710586909252286 117 89 75
0.0162581386113031 0.4493296769082336 1.3091882380967736 208 183 152
-0.4952590013655807 -0.2654809172156774 1.2611288564076506 147 122 92
0.0157155189021690 0.4493492169747455 1.3095150280784464 208 183 152
-0.1014307650266173 0.1079020063646761 1.2806470253710160 164 147 129
0.2887930685021871 -0.2686682457953128 1.3089130083033325 158 146 132
-0.2589584215666373 0.1723191711251730 1.2740015642172831 102 89 81
-0.3856965569060600 0.1731222651454227 1.2706204501681169 120 131 135
-0.5242447853123448 -0.2555584961256022 1.2609020703155724 205 195 159
-0.5213124311237222 0.1759276719878325 1.2692672342804250 145 112 67
-0.5584220038004781 0.0875462533789324 1.2731630999143402 183 170 136
-0.2550826068882005 0.1731743216187329 1.2743873883667105 162 156 132
-0.1065300226471965 -0.2500880637381637 1.2847624229812609 170 131 114
-0.5400811309702216 0.1214609150266117 1.2741240474764450 191 173 133
0.2550378149893539 0.1773228472185070 1.3056365635749427 143 144 128
0.2022869574364782 0.0886198169498399 1.3030636004900977 149 131 127
-0.4925242882347386 0.1197940636710033 1.2679723775073446 207 195 169
0.6301998415902803 0.1890804740859821 1.3489391802579540 223 204 174
0.4749913368108753 -0.2635569357638092 1.3276338478164902 224 202 165
0.0610381348836297 0.0880995265431696 1.2916123378791287 173 157 142
-0.6080583029015796 -0.2463384902640072 1.2621874060710210 120 106 79
0.2299106305400770 0.0916070149629524 1.3053979522026651 168 153 130
-0.0194261181384418 0.1176807809706163 1.2859692533548353 99 95 96
-0.1193938615352432 0.1765441147874521 1.2802338439590220 139 122 104
0.5525797981778738 -0.2628635682561858 1.3340294686680276 226 217 176
-0.0328532641469209 0.0902412626782849 1.2848060267890282 218 200 178
-0.0194261181384418 0.1176807809706163 1.2859692533548353 99 95 96
0.3799614468418480 0.1850633552891514 1.3192745539195112 173 156 110
-0.4542305146086087 -0.2425655620137404 1.2644711386640783 213 195 171
-0.5290735687666854 0.0935476697316903 1.2691065110360991 140 113 70
-0.4543674016007605 -0.2426091993318235 1.2643288228064746 213 195 171
0.6756189441687642 -0.2664209370530894 1.3425463829181770 209 189 152
0.4432944106693696 -0.2512531116664707 1.3197443205337627 185 163 139
0.6474524276048369 0.1284183777212017 1.3491278403164488 220 207 163
-0.2623584473474593 0.0928617028732643 1.2731549882495174 141 53 31
-0.4963330582383557 -0.2335084592459212 1.2617183476349543 208 194 165
-0.2623584473474593 0.0928617028732643 1.2731549882495174 141 53 31
0.3044192774376692 0.0020008896159664 1.3141890200073256 185 170 151
0.4361540112764294 0.4136239560262197 1.3371234761690760 226 206 173
0.0583886128022783 0.0948198519995523 1.2920143257850110 145 136 129
-0.5786075479972455 0.1233215969105517 1.2693205449536387 198 186 160
0.0897050427523764 0.0948898248807925 1.2941856388998505 54 46 43
-0.6320614001357597 0.0087030993996668 1.2786131366491893 57 32 35
-0.4718675428393992 0.3954445735138401 1.2749176791289343 210 191 159
-0.3768254428040973 0.1217865591499555 1.2693647848856473 113 133 131
0.6184285762154236 0.0054594402602755 1.3442515396584689 221 199 158
-0.3632936931040577 0.0969697107356969 1.2692512549446273 127 114 105
0.6221619716482009 0.0053918060692731 1.3453068448893284 230 213 185
-0.3769174821447970 0.1218408692357566 1.2692229170085210 113 133 131
0.6223293624228918 0.0052027244228456 1.3451313242493808 230 213 185
-0.2657065332173095 0.0964487664626275 1.2729682775005617 153 137 49
0.6339078290091092 0.0055942732912210 1.3461474211422402 227 207 172
0.7143721133800272 0.4288954251798238 1.3588060988244832 214 200 163
-0.3383802048243083 0.0073659165761046 1.2681519482671528 114 95 99
0.6103700889884635 0.1300334071787394 1.3463286109797556 221 193 156
0.2572186824174446 0.0061243131143947 1.3102587860338430 154 141 124
0.1024207832647666 0.0971807214985295 1.2944842472375215 114 109 105
0.3102651447454456 0.0066021040799012 1.3140695276590211 168 166 145
-0.3994030447617257 0.3975441203179478 1.2791615994867827 184 169 136
-0.5996159510746532 0.1257245028786257 1.2685619882841324 136 116 89
0.2428621720940796 0.0076441715107101 1.3087659769211888 155 141 128
-0.0239109898822537 0.0098100162424539 1.2857621693187224 182 170 146
-0.3829277344178236 0.3987169812012807 1.2806034940591544 202 187 146
0.1024207832647666 0.0971807214985295 1.2944842472375215 114 109 105
0.2262473287832319 0.0098272259346014 1.3073318580953948 142 126 110
-0.6067383484000929 0.4044102799543603 1.2754219290811191 190 184 148
-0.5794957824111215 0.1266139430250740 1.2690060898990092 136 109 92
-0.2409515798386978 0.1252956530800837 1.2749680296447441 156 123 56
0.3029479631087617 0.0104644982885983 1.3132316475081844 172 155 135
-0.0584469355175413 0.1256737339951763 1.2828050004883755 148 144 133
0.2649742934727259 0.1024480463213885 1.3079090596994272 150 150 122
-0.3945649832395188 0.0128013986564563 1.2676598504455092 130 123 113
-0.0464791474656740 0.0117221065015108 1.2845359370668334 125 104 109
0.1067816831055967 0.0126143094603551 1.2963167131970967 118 73 42
-0.3125511292911669 0.1025797659343824 1.2704021257457092 189 183 151
-0.2450495336621966 0.1261455242034775 1.2746487054133813 49 29 28
-0.2649011578064820 0.1037737582637832 1.2733770506259086 42 32 20
-0.1944031718094893 0.4027367763212636 1.2935581639668858 183 167 131
0.1062656421747971 0.0162982490487245 1.2963803639128879 179 159 134
0.1460864982089722 0.1278903580684251 1.2982790331363727 93 89 78
0.2013584147534626 0.1052207759483884 1.3027731490175267 155 147 128
-0.1898972035640764 0.4031106768190256 1.2938405631110190 185 166 133
-0.0205715872436478 0.1270561602811362 1.2852878038467250 110 98 102
0.6897857217534725 0.0182434039821166 1.3497339495985992 219 197 160
-0.2567152936605809 0.1064566372335821 1.2734092095338145 173 131 55
-0.1787797221368767 0.4034066212167597 1.2947300807319484 185 168 125
0.0813521302809201 0.0185291904978377 1.2936240432048525 161 146 125
-0.0205715872436478 0.1270561602811362 1.2852878038467250 110 98 102
-0.0206599113653450 0.1090981231169298 1.2853347124988104 103 99 96
-0.3354066095304410 0.0214894836437281 1.2685329934414082 126 107 100
-0.4043754143319784 0.1119072569414090 1.2687141936796857 111 120 117
-0.4497320206487620 0.1297145292889113 1.2703040937059158 219 199 164
-0.4805078805194907 0.0223362382419473 1.2670626415479671 216 205 175
0.1978016478111573 0.1312085830398098 1.3020778140604246 115 109 97
-0.0148295643444940 0.1114014289649352 1.2856039698897910 146 140 128
0.5865277290589276 0.4325186824771342 1.3490985334204726 223 205 155
-0.6109535057969033 0.0268078048661446 1.2673284767862507 128 101 56
-0.3754234621253962 0.1141726790690191 1.2689511973955061 111 132 133
-0.6110118963146992 0.0268625043654863 1.2672378937480933 128 101 56
0.5867303442331301 0.4325292760811617 1.3492659090946839 223 205 155
-0.5554026080221567 0.1339348963048413 1.2775458782836369 157 136 105
0.6492112499276743 0.0300499736027564 1.3478280586334133 219 196 154
-0.2050086385389500 0.0295724056991200 1.2751200652890897 208 173 151
-0.5629253813041873 0.1334548497156527 1.2706816934054856 196 183 148
0.6697656483974255 0.0305812240871805 1.3477486392149634 217 194 160
-0.5632763739743455 0.1334164600300670 1.2695326075538733 196 183 148
-0.0272089190416247 0.1161113182732067 1.2851034603124869 155 146 129
-0.5978892153621399 0.0324932131866140 1.2676285835585925 127 104 88
0.3774571928702193 0.4265663344436544 1.3342664710893066 228 203 162
-0.3736217529616723 0.0307713347350739 1.2659614182294638 46 41 38
0.1186308204485091 0.0299799725333033 1.2971624724373649 76 51 46
-0.2290602426856179 0.4096270210397586 1.2914494374086749 197 177 140
0.5142426159146986 0.0312780040816049 1.3378069491916229 227 207 170
0.5143750425827388 0.0313964913465241 1.3377420068931811 227 207 170
0.4669479710903273 0.1400931195932144 1.3356794527018996 232 212 179
-0.2289718359661125 0.4098002356374857 1.2916944331008791 197 177 140
0.5294017846115624 0.0311333649244341 1.3386751517963755 226 208 160
0.2509152711355494 0.1372283763305999 1.3062921706196309 65 48 58
-0.3519060877004039 0.1198733836608701 1.2698834916308090 53 41 25
-0.2886985688542884 0.4092159433213775 1.2868150329262467 195 179 143
0.2904628705447580 0.0294536476055391 1.3116959095887581 167 149 129
-0.0238910794178263 0.1198932057275131 1.2852439048636821 112 101 105
0.5182749459430772 0.0315997090806801 1.3378828581279409 237 215 178
-0.2886985688542884 0.4092159433213775 1.2868150329262467 195 179 143
0.5160662599716619 0.0352353120151871 1.3371459613922281 185 157 107
-0.0238463002256217 0.1197929514795035 1.2850809415805104 112 101 105
-0.2187033573894123 0.4102783831936230 1.2923139477666949 202 183 153
0.4446529791503203 0.1439819459384116 1.3303156509895222 157 144 112
-0.0122734237146014 0.1194417627397661 1.2860150962949555 144 135 120
-0.3936409680351042 0.0381928772745704 1.2678141100795293 46 41 35
0.1495385313863643 0.1395869540974360 1.2978330784939007 48 36 36
0.2767661958838575 0.1227919980507879 1.3084119108994416 54 42 44
0.6014503344528892 0.0429596582842160 1.3445152009912720 232 213 180
0.6016853493047609 0.0427306332399343 1.3438942720295348 232 213 180
0.1644626825571220 0.1226367963995425 1.2997093069079673 94 88 72
0.5383843000822863 0.1494117237103799 1.3412117028509665 231 211 176
0.6051176944391373 0.0431551530143775 1.3441198704299828 222 203 171
0.0923482587889460 0.0418212541363601 1.2946283504356866 171 150 133
0.0235376284008311 0.4156474331437469 1.3098100131494270 205 179 142
0.2133709737068643 0.0439964363994493 1.3047964829264493 171 163 142
0.6035062893176948 0.0462711331586989 1.3439923914732261 171 143 106
0.1162764115224730 0.0440237374406268 1.2966270880594160 151 139 117
0.5529951030150243 0.1501049200392684 1.3435593025897747 231 214 170
-0.0192942956879982 0.1224405916766454 1.2858804229651803 159 150 133
0.4663637979213359 0.0473334956529535 1.3322529197992448 229 203 166
0.5117900463688517 0.4373749503524113 1.3439607378082408 218 202 153
-0.0192942956879982 0.1224405916766454 1.2858804229651803 159 150 133
0.5178778577955239 0.4377165635769333 1.3448060117079832 221 197 159
-0.1006007157741616 0.1227318820404434 1.2805812904351219 140 135 116
0.0945549422817627 -0.2367241783042734 1.2964365200345120 171 159 135
-0.0268170083297200 0.1251778242401315 1.2849350596428459 159 148 128
-0.2255158601686878 0.1430926637362842 1.2758958004461189 171 132 63
-0.0238901006067535 0.1284361040593514 1.2849947863891493 113 103 102
0.2378658503988140 -0.2287962322616116 1.3060014176621171 57 46 50
0.5178076565760533 -0.2372076010531688 1.3319062937324218 221 196 165
0.6337864455541546 0.1549528486047527 1.3489121555071120 228 212 176
0.0785807893426038 -0.2218009709449428 1.2953312675249147 175 153 132
-0.4682590413540727 -0.2176593323777035 1.2629530837686456 151 125 92
-0.3633615721340285 0.4135789957859962 1.2823585255100205 205 182 148
-0.0855260625541026 0.1306940264897375 1.2830755339922195 45 39 43
0.0740455650207703 -0.2179698006894097 1.2946606379395613 181 154 133
0.6187309733259874 0.1551201320155932 1.3470574252388012 224 199 169
-0.5005180983970997 0.1467343515558478 1.2681071071704058 208 193 164
-0.0783709838642666 0.4158321100001761 1.3030551337852456 197 177 140
-0.2788721917790168 0.1443274752491355 1.2726484602342516 183 171 145
0.5580870400366813 -0.2299250622438181 1.3353845247392644 225 197 157
-0.0312073795533285 0.1397043627385172 1.2837951631905569 116 105 109
0.1516488827562265 0.1479050332718393 1.2982413071082728 51 41 42
0.7092743578931567 -0.2336929318838427 1.3455721104139837 178 148 122
-0.5246690087926490 -0.2105892189913403 1.2616903800703190 194 177 147
0.1978592043563665 0.1480153363902069 1.3016279067087111 106 100 86
-0.1020598364716464 0.1421461605497009 1.2803263391967565 115 116 110
0.3834239606124614 0.1524118349256827 1.3200944124139884 185 165 130
-0.5047737600434865 0.1464095405450013 1.2683361884490627 194 177 147
0.6502101162694517 -0.2245603106445089 1.3416299765447661 221 196 155
-0.0269246320027790 0.1468410591539605 1.2849005776409010 147 138 121
0.0618721320602271 -0.2071612579188338 1.2940800619999471 181 163 141
-0.0785312241337180 0.4157138124804102 1.3030635786141140 197 177 140
-0.0269246320027790 0.1468410591539605 1.2849005776409010 147 138 121
0.2090771433379496 0.1515175763108263 1.3002885383571452 99 97 84
-0.0709745587338636 0.4156907966623603 1.3027392982219117 203 181 132
0.5851670477077083 -0.2201680459161107 1.3372084862985856 228 206 169
0.5851670477077083 -0.2201680459161107 1.3372084862985856 228 206 169
-0.0709745587338636 0.4156907966623603 1.3027392982219117 203 181 132
0.0568800139580821 -0.2026686678846603 1.2934675329410981 163 146 128
-0.0106318447574604 0.1524829762553859 1.2859343538322952 144 133 115
0.1274193465238902 -0.2030469402169690 1.2978709641824688 171 152 135
-0.5836056745450439 0.1550925290551755 1.2687007874945579 173 150 116
-0.0421416712409063 0.1537280629437060 1.2839169411537228 111 104 96
-0.4906164493550351 0.4152681963437658 1.2748132854147289 211 195 159
0.7180741604045571 0.1700465779411088 1.3554152042556125 231 212 169
0.0711157330213028 0.4236793047188221 1.3132088914239608 217 193 155
0.1552965255565651 0.1605722639941110 1.2978398185084288 38 26 28
0.0712896072172853 0.4237020129444663 1.3134340697929783 217 193 155
-0.3890523638601578 0.1603950885678330 1.2703917432448182 108 128 119
-0.2028712930654803 0.1687135164511779 1.2771436692782623 184 143 61
-0.4283640440025770 0.1704150173748427 1.2695737909533960 118 107 101
-0.6252455077076200 0.1667640704493061 1.2768376931140009 194 177 159
0.1783125397286416 0.4287269305104719 1.3208175156742119 204 186 146
0.1637883495788573 0.1797406614527712 1.2980548305535919 107 100 90
0.1783125397286416 0.4287269305104719 1.3208175156742119 204 186 146
0.1637398451510661 0.1796255917067737 1.2981555561536149 107 100 90
0.6776255305093483 0.1766290685479658 1.3520991731062555 214 200 163
0.3650047226548894 0.4379842657938786 1.3343052397072832 211 192 152
-0.2811145647979553 -0.1781820358582299 1.2724940878788036 149 119 91
0.3650059749625196 0.4379679495508112 1.3341064489782002 211 192 152
0.2049577703472932 0.1821617451775144 1.3014599679334167 107 100 90
0.6778400750575087 0.1766249523732457 1.3522722539581813 214 200 163
-0.2256463254671599 -0.1764586746198198 1.2764299896824902 198 98 48
0.3689350372939982 0.4376688086461084 1.3343281101276394 216 197 155
0.2049577703472932 0.1821617451775144 1.3014599679334167 107 100 90
0.3688332963507011 0.4377185300077696 1.3344839048513091 216 197 155
0.3766211081779504 0.1890615759165943 1.3196446998993028 164 145 105
-0.3760418935761101 0.1644220860447759 1.2709227265122627 146 134 62
0.3530487678024454 0.4382863408657473 1.3332551311198089 218 203 164
-0.3289582747943693 0.1639235406041261 1.2712074324516041 162 120 44
0.3155200187117028 -0.1825495026518420 1.3131808032525216 163 153 126
0.3533020284571014 0.4385057584786590 1.3336481241749323 218 203 164
0.3240215455997875 -0.1825575304455642 1.3138260199651626 186 165 136
0.2058873182775066 0.1885903793661608 1.3008018695342767 111 109 94
0.2058873182775066 0.1885903793661608 1.3008018695342767 111 109 94
-0.2269288320172802 -0.1724814035112971 1.2763534489487380 136 65 9
-0.0486286890187591 -0.1728534513847162 1.2865858525444309 118 104 91
-0.1126757756187003 -0.1704593986378223 1.2823539518817610 167 107 53
-0.4768333075449563 0.1680864203257844 1.2698660074417580 224 205 172
-0.4190169699648532 0.4225955251294833 1.2778806776865042 219 198 167
-0.0862428405216910 -0.1703336187551443 1.2840845661179838 121 109 97
-0.1166359173990411 -0.1688773530524662 1.2820825033976129 81 52 38
-0.4190169699648532 0.4225955251294833 1.2778806776865042 219 198 167
-0.0489247780775543 -0.1695522817180573 1.2862291096097096 61 55 59
-0.3803920864585135 0.1947201689899867 1.2709308101744587 36 34 35
0.3212843039127123 0.4389839903515725 1.3307738294077038 205 192 147
-0.3803920864585135 0.1947201689899867 1.2709308101744587 36 34 35
-0.4726955232449230 0.1684561678015864 1.2699942911140298 216 200 174
0.3212300460512090 0.4389322872721350 1.3308467964917783 205 192 147
-0.1199086761929360 -0.1665072848413830 1.2820797515780964 159 121 100
-0.4607883476141814 0.1692452484493464 1.2708128583496732 209 187 148
0.5254414126012533 -0.1793855479051684 1.3326302447352305 227 211 178
-0.1301161428470331 -0.1591734020309774 1.2811814247039464 168 156 134
-0.1301161428470331 -0.1591734020309774 1.2811814247039464 168 156 134
-0.5889876267929279 0.1731658027835722 1.2697227042096773 202 189 154
0.2473778055476249 0.1997142704351470 1.3048037585154477 47 43 44
-0.1338098594904835 -0.1570365460006456 1.2807530619435183 62 48 61
-0.0003105540743215 -0.1530771084638390 1.2894871741245926 152 134 120
0.1646480972262306 0.1994866950880496 1.2970729418995550 58 49 54
0.1120060724932714 -0.1523109662236860 1.2976117852651323 69 39 41
-0.1381087403991965 0.1717018293455884 1.2798872497734151 191 175 142
0.5521471777933166 0.4580637880130774 1.3471385277323289 224 204 167
0.2270147126438928 -0.1536499131631158 1.3069938008348745 154 147 131
0.4647503155360279 -0.1581206163705249 1.3299311780528202 213 194 161
-0.1381087403991965 0.1717018293455884 1.2798872497734151 191 175 142
0.4647503155360279 -0.1581206163705249 1.3299311780528202 213 194 161
0.1622111549464922 0.1742954768645285 1.2981924836562277 102 96 82
